# 3D point list with one line of data per point:
#   POINT3D_ID, X, Y, Z, R, G, B, ERROR, TRACK[] as (IMAGE_ID, POINT2D_IDX)
# Number of points: 245, mean track length: 11.835531273549359
5471 -21.876745812610487 -9.6312495117504202 105.9372893021248 84 77 80 2.1078492173042513 36 9058 52 3445 57 8954 50 5945 51 7636 54 7782 53 7756 50 5957 55 7859 58 5952 60 8943 62 7665 61 7671 61 3651
3932 -31.45528038672958 -4.9501806788320479 106.51408917438192 80 89 80 0.73095172371186379 36 8797 49 7996 51 8006 50 6321 52 8071 54 8154 57 8611 53 9141 56 6423 59 6072 55 8919 58 7006 60 7395 62 8314 61 8319
2767 -24.124706676334203 10.923959296182845 115.1452305087124 101 118 120 1.5316311815098982 36 7434 49 4234 51 2255 50 2271 52 2302 54 3488 57 1355 53 1002 56 1619 51 342 52 339 49 317 50 335 59 1353 55 1012 58 1046 60 1291 62 1742 61 1042
3491 -28.295375432461508 18.414377900709514 115.89256280749137 82 102 69 0.67597779413188352 36 8005 50 6704
2770 -24.939273296046444 10.845827949341215 114.07530888937005 60 68 75 0.86056827941990843 36 4362 49 2283 51 2258 50 2274 52 2303 54 3489 57 2447 53 2245 56 2266 59 2564 55 2304 58 2202 60 1855 62 2286 61 2055
4144 -22.311299763931675 5.1616529679983243 113.22702270558952 131 111 98 0.34281215511381719 36 7041 49 4030 51 8903 50 5042 52 3898 54 9056 57 7190 53 9036 56 8920 59 4482 55 4115 58 2227 60 4526 62 3384 61 2411
2771 -32.853494889664915 10.217484638382194 117.11178976843125 80 85 93 1.8432087219640634 36 4338 49 1753 51 2260 54 9581 52 5753 53 5854 56 2286 56 9462 53 2256
4139 3.4586611159867311 5.8423888231874193 115.8784746755388 75 79 52 1.8579566602469393 36 7316 51 8876 52 8933 54 9001 57 7106 53 8978 56 8873 59 4991 55 9163 58 5032 60 7303
5978 18.161246957924607 -41.724794821543561 93.478938305189629 181 168 158 1.5918053468151716 49 5842 50 7099 51 5833 52 5846 54 5907 53 5838 59 5894 50 7100 52 5839 58 7056 58 7079 60 5843 60 5864 61 5775
4004 -34.913923764845094 17.300276629548577 121.00016281477667 197 100 65 0.31436396543100553 36 4497 49 8256 51 8273 52 2466
3125 -23.016734110478492 11.10510408107049 116.88043054744743 54 65 52 0.33982190540118445 36 4918 49 2273 51 3485 50 3518 52 2291 54 3478 57 2456
2775 -6.7709112620170515 13.480741340413866 118.856573473499 116 126 100 0.42001110037599976 36 1996 49 2295 51 2271 50 2290 52 2317 57 2223 53 1647 56 1634 59 1848 55 1659 58 1775 60 1839 62 2040 61 1567
4014 6.0213872521596228 19.654358586304216 119.94891364858294 196 160 145 0.66369095467016104 36 8320 49 8285 51 8304
2777 -7.0857557781500571 13.62539229726328 119.12171415728704 12 19 1 0.77119124828715313 36 7694 49 2297 51 2273 50 2293 52 2320 54 1729 57 1900 53 1117 56 1115 59 1293 55 1028 58 1058 60 1303 62 2323 61 1573
4159 0.4379228123234663 7.0943925893701802 117.18674256968664 72 96 54 1.7432462195657923 36 2862 49 8992 51 8956 50 8849 52 3921 53 9146 49 9011 51 8978 56 8999 55 9279
2782 -4.347809905435958 13.967338523903889 118.85574130717515 96 123 85 0.65727118967473852 36 4477 51 2282 50 2300 54 3518 57 2420 53 2276 56 2301 59 2527 55 2347 58 2402 60 2492 62 1526 61 2306
4012 6.1175256532698752 19.456291009411945 120.2798349363123 105 68 53 0.42063023257527254 36 8301 49 8266 51 8288 50 6639
3133 9.2277219857731776 -10.907595273849227 109.50085735870654 189 197 178 0.79765119084386449 36 2184 49 7467 51 3532 50 4568 52 2505 54 3571 57 2915 53 2422 56 3105 59 3036 55 3114 58 3117 60 3002 62 3052 61 3045
2785 14.090592305041627 13.140502803016131 120.01262620776581 100 107 88 0.97437919224546854 36 4580 49 4282 51 2288 50 2306 52 2330 54 2230 57 2410 53 2285 56 2311 59 2514 55 2358 58 2421 60 2479 61 2315 62 1537
3443 -18.961382703983553 16.096964183086374 117.60222280349781 49 50 38 0.26872811891214055 36 7800 49 4387 51 4362 50 5390 52 4274 54 4465 57 4843 53 4490 56 5395 59 2441 55 2430
2786 -10.563053846629179 13.914668031007215 117.39484480365419 50 25 24 1.0151342907633611 36 4458 49 2310 51 2289 50 2309 52 2331 54 2232 57 2411 53 4355 56 9574 55 4387 58 6424 60 8069 62 2341 61 2313 61 8150
2787 -9.1842333380677754 14.410199655472644 120.34983775334652 71 88 48 1.0297095186917358 36 7703 49 4287 51 2290 50 2311 52 4165 54 4361 57 2406 53 2288 56 2315 55 2363 60 8096 62 8181 61 8175
6000 20.059876659937338 -40.648576493442107 94.086773202515872 178 167 164 0.34495569523211406 49 5898 50 7158 51 5895 52 5906 54 5964 57 6016 53 5894 56 7209 59 5926 55 5920 58 7125 60 5900 62 4674 61 4819
2789 -25.112697324667991 12.854834850026153 117.45132177541336 85 103 100 1.3348537506053275 36 2808 49 2309 51 2293 50 2308 54 2231 57 2407 59 1839 54 1017 55 1675 58 1791 60 1826 62 2148 61 1582
3956 4.516131920136826 17.032305808240643 120.31721641356296 81 86 63 1.9755398291289996 36 8105 49 8073 51 8100 50 6451 52 8178 54 8293 53 4508 57 2266 49 4408 50 2389 51 4380 52 2419 54 2324 56 5419 55 4527 55 8447
2791 15.154159056536647 13.131544861460362 118.52084659087379 119 108 85 0.62843323967809472 51 2297 50 2314 52 2338 57 2401 53 4380 56 8486 59 2509 59 7981 55 2367 55 8217 58 1823 60 1825 62 2347 61 2325
3966 -15.202109515700355 17.274181519128426 119.86826533768634 87 101 80 0.90912280549753854 36 7866 49 8101 51 8123 50 6482 52 8212 54 8334 57 8160 53 8308 56 8406 55 8501
2793 -16.472546850974226 14.522456970604587 119.63573682529378 59 86 58 1.6597978526326902 36 7663 51 2304 50 2266 52 714 51 721 54 705 54 2251 57 950 57 2384 53 721 53 2303 56 708 56 2330 59 947 59 2185 55 694 55 2378 58 697 58 2440 60 964 60 2449 62 681 61 696 61 2343
3451 -20.420229906213624 16.399390978355093 117.02464637343225 28 32 39 0.5968005919468895 36 4506 49 4411 51 4384 50 5405 52 4299 54 4486 57 4873 53 4514 56 2400 55 2447
2794 -11.506470936277031 14.590897294901486 118.60397168223784 163 142 130 1.3175685563571071 36 7729 49 2321 51 2306 54 1743 53 2191 56 2319 56 6458 59 1305 55 8263 58 1064 60 1316 62 1063 61 1066
5503 -2.4634555985330393 -37.38906182819828 92.744461204956679 77 108 117 0.63461881429128086 36 5977 52 4022 57 3375 53 2659 62 4384 61 4532
3964 -33.148741593987893 14.751267267816221 119.21598088177205 70 41 20 1.3495804184698386 36 7642 51 8115 50 6454
2799 -7.0158808966407999 15.525838379069645 119.68766502241722 72 84 69 0.70385544958746482 36 4502 49 2332 51 2319 57 4785 53 4427 56 5336 55 2392
3395 -0.86218307256527427 13.915075188880282 120.35898843617696 101 98 102 1.7161583570753358 49 4275 51 4245 50 5555 52 6205 54 6012 57 7811 56 9538 59 7932 62 8127 61 8129
2802 -4.0812965303946038 16.002988349950755 119.76379450902614 13 35 1 1.0088104424628235 36 4544 49 4345 51 2327 50 2352 52 2380 54 2284 57 2361 53 2320 56 2359 59 2467 55 2404 58 6593 59 8153 50 9545 52 8114 53 8184 54 8213 60 1805 60 8258
14144 3.9832102172707948 14.511078891075259 116.0032054263791 86 101 89 0.8353093041594658 50 33 57 31 58 6494 62 4359 53 30 54 26 56 30 61 4485
2803 -25.893268616465697 14.411367671034037 117.95675440403201 88 90 96 2.0833603928390532 36 7649 49 4350 51 2329 50 2351 52 2382 54 2281 57 2366 53 2313 59 8143 54 8223 55 4479 56 5366 59 4851 58 5404
2805 -25.893815364747191 14.23812472158642 116.53596311159141 33 31 41 0.58969681227661674 36 4435 49 2344 51 2332 50 2354 52 1649 54 1765 59 1821
6010 -8.6498802467386895 -40.128285190804014 89.721559934794698 246 245 249 0.16268696754721756 49 5931 50 7191 51 5923 52 5933 54 5993 57 6047 53 5921 56 7243 59 5952 55 5948 58 3582 60 5211 62 5843 61 8329
2807 -6.601899386067136 16.142807606020892 119.50979032435716 81 92 77 0.61559868982802624 36 2739 49 2345 51 2336 50 2355 52 2385 54 2291 57 2356 53 2325 56 2365 59 1813 55 1707 58 1568
2809 6.5613185264886624 16.071267242871048 120.13511537314568 83 69 74 2.1983888047411164 36 2687 49 2350 51 2338 49 4379 50 2358 50 5383 52 2387 54 2294 54 4452 57 2352 57 4827 53 2329 56 2368 56 6622 59 8591 59 4881 55 2414 55 4499 58 2475 58 6647
3403 -24.510859460015624 12.655108040967495 117.1262328428856 14 29 13 1.0282985535793312 36 2812 49 4285 51 4260 50 5278 52 4160 54 2228 57 2413 53 2283 56 2309 59 4772 55 4384 58 2414 60 2392 62 1049 61 1058
2810 -18.858263640819199 15.451794223431801 118.04262485836126 110 113 90 0.24325991659643295 36 4470 49 2351 51 2340 50 2359 52 2389 54 2295 57 2353 53 2327 56 2367 59 2157 55 2411 60 2421 58 2472
13647 -20.655964280358354 5.4945883222014009 117.77510502090762 100 114 73 0.22038315473954553 54 4105 58 9006 60 7346 62 9046 61 9134
2814 15.068165785115195 14.633703395755211 118.54016361621898 45 27 22 2.0756224109050567 36 8188 51 2348 49 2346 57 2360 57 4811 53 4360 53 4452 56 5353 59 4840 55 4465 58 5389 60 4871 60 4885
3916 11.813428230277651 -3.6311805019490495 112.20855679967248 107 126 86 1.7688177190113199 36 2110 49 7939 51 7945 50 6248 52 3243 52 8009 57 2777 53 3195 56 3250 59 2910 55 1818 58 3243 60 8418 62 3187 62 8889 61 3194
14003 -29.956134595338209 11.153899177284483 118.1524257503746 39 41 43 1.9750208924026413 53 1644 57 1898 62 1794 57 2438
2816 -22.095243011165731 15.621265636662052 118.3787198050686 74 74 71 1.0812572493057315 36 4469 49 2363 51 2350 50 2370 52 2404 54 2223 57 1860 53 2341 56 1688 55 1719 59 1803 58 6650 54 8258
3250 13.996302343107027 2.4570800207781289 115.76303457391595 255 236 219 1.4504856845305034 36 4967 51 3905 50 8583 52 8747 54 8817 57 5013 53 8790 56 8653 59 4367 55 4014 58 8730 62 8741 61 8823
2819 -26.204829535879064 15.499481726627767 118.43276739734603 79 86 88 1.9323963327145157 36 7715 49 2369 51 2354 50 6458 51 8106 54 8302 57 4857 53 4496 53 8270 56 2387
3767 11.583667801725086 -17.709456178812601 104.62425173742773 220 226 227 0.89090016059255273 36 9360 49 7109 51 7107 50 8376 52 7200 54 7237 57 9480 59 9510 58 9037 60 9490 62 7107 61 7114
2820 -18.420454150028423 16.164298414417903 117.42954858358975 123 117 94 0.2458534855562472 36 4508 49 2375 51 2358 50 2377 52 2412 54 1591 57 2330 53 2345 56 2385 59 2440 55 1729
2822 16.01304289327166 15.808915223001307 120.00617004995897 43 38 40 0.86150633238896435 36 2642 49 2379 51 2360 50 2228 52 1672 54 2315
13957 -20.450441172834513 -22.709400663648317 96.134825210986861 88 115 125 1.9226679685579431 55 6944 59 6916 60 468 62 442 58 8086 58 463 60 6886 61 452
2826 -25.443034601193901 15.772850010053007 117.01783925339397 64 75 59 1.4051672547375726 36 2760 51 2370 49 9123 51 4254 50 6475 52 8208 54 2328 57 2318 53 4513 56 1702 56 5422 53 2356 55 8472
3258 -19.075465108663476 2.762955088753198 113.53192849577133 25 34 17 1.385421267142469 36 6900 49 3922 51 3916 50 4938 52 8757 54 8824 56 8667 59 9068 59 9376 55 8944 58 8724 60 7024 62 3919 61 8838
2827 11.790296947848439 16.844062736035728 120.67880384656056 110 126 66 1.0447424648592198 36 4671 49 2382 51 2371 50 2395 52 2424 54 2333 57 4878 53 2367 56 2411
2828 -14.23340068510532 17.582176110747412 120.90535036231903 4 27 0 1.1309372752740159 36 4980 49 4417 51 2372 50 2391 52 2423 57 2314 53 4523 55 2454
3769 11.155120254981432 -17.637516417807362 104.24335449547934 127 132 140 1.961439925179143 36 9377 49 7113 51 7113 50 8405 51 7132 57 9493 52 7182 54 7221 56 5526 59 9518 55 7267 58 9032 60 9492 61 7108 58 5485
2830 -5.0113175141422719 17.530712757736406 118.93672205062693 113 126 97 0.4493457699747424 36 4596 49 2387 51 2376 50 2393 52 2427 54 2331 57 2317 53 2362 56 2407 55 8485
2832 -18.88708195412697 16.889273845609644 117.10362485548721 49 51 48 0.54970890426841723 36 4539 49 2391 51 2378 50 2398 52 4316 54 4475 57 8548 53 4526 56 6720 55 4548
3202 0.83004289810334453 -0.75741492084625728 112.5965315266621 145 146 128 0.62903060733169824 36 4149 49 3785 51 3787 50 4820 52 3661 54 3852 57 4223 53 3852 56 3291 59 4231 55 3887 58 3283 60 2826 62 3221 61 3233
2835 -6.4244044284912372 18.400417348801732 120.7811951864234 19 39 12 0.90605469297921559 36 8024 49 2402 51 2385 50 1805 52 2437 54 2344 57 2306 53 1721
3719 -33.95777730129987 5.4795165973302771 113.26350480206793 30 37 21 1.4397177686705995 36 4239 49 4119 51 6678 50 8978 52 9138 54 9264 57 1954 54 1670 53 9248 56 764 56 9133 55 9407 55 1577
3713 -29.376716518633359 -28.470840482637655 96.457717838613306 64 64 74 0.43612196299163897 36 6436 51 6626 52 6668 58 7867 60 6649 62 6573 61 6572
2838 -14.8765101247003 17.954889260831212 120.18912071726297 63 90 51 1.4298678753282059 36 7939 49 8165 49 8150 51 8172 50 2406 51 2384 52 2436 54 4508 51 8159 52 8447 57 4891 57 8225 53 8371
2842 -18.68366574722624 18.799350037232884 120.37128670665582 54 54 51 1.0088722026657988 36 7968 49 2421 51 2412 52 1719 54 1632
5781 -5.4363086268197689 -18.044122983235024 102.63536200862983 57 80 66 0.27193489827989104 49 7068 50 4382 51 5326 52 5254 54 7181 57 3761 53 5354 56 4323 59 3725 55 5416 58 4287 60 3717 62 2934 61 2928
3210 -30.696084182150543 -3.2012174902086032 106.71115664215253 37 43 46 1.7845251828359254 36 8699 49 3799 51 3799 50 4830 52 3670 54 3867 57 7589 54 8497 53 8519 56 7287 59 8342 52 8524 55 8637 55 8649 58 8412 60 8365 62 3775 61 3906
2843 -10.099751065104302 19.323367521954935 120.04944354206695 79 93 61 0.59400163522484617 36 4616 49 2422 51 2413 50 2431 52 2458 54 2377
3727 -0.77830041299086605 -24.557744140190739 101.48419050309501 230 221 212 0.31477041990132093 36 6713 51 6719 52 6772 57 6914 53 6769 56 8102 59 6811 55 6834 62 6697
2844 -9.6909776214438761 19.38130378415288 119.64579508749188 16 32 1 0.50458081895126028 36 4623 49 2511 51 2415 50 5462 52 4379 54 4544
3721 -20.603802916526433 -25.944018619336649 98.145376373549084 131 137 146 1.7313985180711375 36 6586 51 6683
2846 -20.918447937436586 19.093656690986162 120.38215519684695 77 73 63 0.79587141684841778 36 4575 49 2427 51 2419 50 2441 52 2468
2847 -12.3369386630867 19.701511446883611 120.1683875445682 121 98 83 0.41847685177961114 36 4618 49 4477 51 2422 50 2442 52 2469 54 8480
2848 -13.221983000659964 19.682659802476678 119.80516772834504 122 113 111 0.29321921006518104 36 8093 49 2513 51 2423 50 2445 52 2471
3665 -17.422465563469636 -35.991276643946591 93.294664312194527 201 193 199 0.27866519046612437 36 6058 51 6165 50 7445 52 6193 54 6246 57 6314 53 6188 56 7495 59 6237 55 6220 58 7423 60 6212 62 6106 61 6113
2854 -33.042614821165827 19.113542562181905 121.64092807833364 75 87 61 0.18793463472655864 36 4553 51 2442
2859 12.439873051739523 -22.413980219005524 101.73765277618199 178 179 182 2.041779060426907 36 6211 49 2954 51 2462 50 2958 52 2981 54 2907 56 2935 59 3201 55 2953 58 2953 60 3182 62 2875 61 2872
4565 6.2452770912390356 -14.427063416218866 107.18545187169764 81 88 87 0.99926025678686514 36 3166 50 4479 52 5355 54 5455 57 3865 53 7405 60 3824
3679 -3.9916824871457446 -32.176344478955087 96.405422851622063 153 128 125 1.7261104475102409 36 6244 51 6313 60 6360 58 7576 62 6266 61 6287
4558 -22.607988973218283 -24.372154449143746 100.14638494656391 238 244 245 1.5651974383742664 36 6659 49 5221 51 5232 50 4272 52 5155 54 5283 60 3201 62 2857 61 2859
3673 -20.491423448368309 -34.399042943171622 94.445411039217007 89 94 92 1.7571890855896497 36 1455 49 6287 51 6270 50 7564 57 1678 53 2093 56 2082 59 1640 55 2087
2862 15.236981464531691 -3.1731475234121862 113.70193434949638 76 73 64 1.654736515468161 36 4165 49 3743 51 2473 50 2498 52 3252 54 3201 57 2757 53 3211 56 3264 59 2895 55 3248 58 3264 60 2850 58 3259 62 2413 62 3205 61 3204 61 3208
2863 15.403740194685515 -2.020301796039464 112.03676143687626 88 83 77 1.7900429962344373 49 3269 51 2474 50 3265 52 3274 54 3220 57 2742 53 3230 56 3283 59 2875 59 4985 55 3267 58 3277 58 8414 60 2837 60 7988 62 3215 61 3223 61 8531
2864 -18.744000207849563 0.50480377947260413 111.30811128588597 12 18 19 0.85217689272477315 36 4120 49 3855 51 2475 50 3309 52 3311 54 3261 57 2050 53 8639 57 8414 56 1774 59 1990 55 1656 58 1692 60 2010 62 1559 61 1664
4562 -24.329534425372881 -17.650462961688362 104.69089889116574 250 253 247 2.2677242056176019 36 9507 49 7183 51 5237 50 4440 52 7291 54 7337 57 4980 53 7301 56 4405 56 4406 52 7269 55 5498 60 3788 62 5283 61 5383
3745 -18.765771529788044 14.76618343469057 117.49917610736173 26 28 4 1.2678384304291717 36 8223 49 6925 51 6899 50 9508 52 7595 54 2269 57 4790 53 4433 56 5339 59 4830 55 4453 58 1077 50 735 51 1025 52 1024 58 6536 60 1325
3242 -14.08303792527802 2.1282005251036193 114.7539507757202 85 90 46 1.3035266612378749 36 6873 49 3880 51 3878 50 4899 50 4900 52 3748 54 8752 57 8507 53 8717 53 8719 56 8589 59 8573 55 8851 58 8639 60 4960 62 8674 62 8683 61 4540 61 8747
2875 7.0220924070251609 -46.897618685395777 88.129012960724253 232 234 234 0.5963688019449892 36 2476 51 2515 50 2534 52 2549 54 2458 62 2444 61 2442
3759 -33.905181943477864 -21.895609707248372 100.19836729435676 226 212 213 0.55603937473207787 36 4892 49 7050 51 7043 50 8305 52 7119 54 7149 57 9552 53 7110 56 8466 59 5772 55 7186 58 8305 60 3702 62 5211 61 5304
2876 -1.1303778401073963 -45.964178916968059 86.342978032575019 147 141 146 0.33248466020639406 36 5486 49 2551 51 2528 50 3606 52 4515 54 4670 57 5088 53 4661 56 3597 59 5066 55 4678 58 3657 60 5039 62 4496 61 4643
3544 13.689336778157639 -36.096955433637554 95.310129778445628 233 209 202 1.3595631350753048 36 4882 51 4910 49 6131 50 3533 62 6047
4569 -35.187762137575348 -15.779082877631261 101.41415260330808 35 40 36 0.89731867441843538 36 9371 49 3483 51 2466 50 4524
5294 14.546280219786958 -45.504846048035944 89.783191859756073 180 206 214 0.46024269607498841 49 2561 50 2552 51 4644 52 2570 54 2479 57 5101 53 4561 56 5453 59 5087 55 4690 58 5429 60 4890 62 2470 61 2469
14067 -31.678480168595247 -1.1353849980790274 117.32833144037826 0 0 0 1.6627491845047142 57 2227 58 3333 59 382 54 4563 57 8426 50 8460
2880 -1.4105724768463928 -42.114572256156166 87.999063622508601 86 141 144 0.41590935695360692 36 5126 49 4762 51 2596 50 3584 52 4640 54 4777 57 5195 53 4765 56 3807 55 4795
3314 16.319413505078273 6.3870011934831394 116.30234745199215 66 72 63 0.66276944067614074 51 4062 50 8921 52 9072 54 9188 57 7315 53 4133 56 5070 59 4530 55 4154 58 9125 36 7579 60 7487 62 9168 61 4591
2883 -2.1777249721859508 -40.791412689431233 90.571891734918253 98 143 162 0.28804023273983564 36 5785 51 2630 52 4697 57 4932 53 2599 56 2621 59 5255 55 2462 58 3749 60 5197 62 4665 61 4809
3831 -18.565980627274673 15.428740727972331 117.91908034234751 58 61 28 0.31140900139131811 36 8241 49 7330 51 7436 50 9548 56 6587 58 3634
2884 13.951110320993374 -39.643812176706348 93.413580610581405 157 141 139 0.88005958356624125 36 5212 49 2472 51 2644 50 2668 52 2683 54 2601 59 5977 55 5973 58 7171 60 5949 62 5865 61 5866
3825 -30.324403333073697 -14.738177262328346 103.16993996733292 83 116 136 2.1789519689866697 36 9340 49 7373 51 7393 50 5736 51 7423 49 7401 52 7474 52 7500 54 5542 54 7550 57 9172 57 9199 53 3518 53 7528 56 4490 56 5844 59 3882 59 9184 55 3534 55 7613 58 5738 58 5756 60 4936 60 9146 62 7423 62 7452 61 7440 61 7472
2890 14.416965464348587 -38.914892907134991 94.51204902643164 86 81 77 0.53673369979210273 36 1602 49 2700 51 2672 50 2693 52 4756 54 4568 57 3395 53 2644 56 3910 59 6030 55 4919 58 7234 60 6006 62 4718 61 5911
3322 -2.5502061461898213 8.3927421648149192 116.39976867210696 37 54 15 0.33344890782337822 36 7401 49 4113 51 4080 50 5106 52 3976 54 4181 57 4540 53 4153 56 5096 59 7495 55 9393 58 9184 60 7552 62 2189 61 3426
2891 -29.541225438353681 -40.236978041881507 87.886352066366044 172 175 184 0.3073776986710115 36 6993 51 2674 50 2697 52 2711 54 2629 57 3394 53 2645 56 2664 59 2227 55 2679 58 2705 60 3229 62 4714 61 4859
3839 4.4645529252796994 15.768423468538787 118.50389651034524 110 125 104 0.78604209405023728 36 8025 49 7432 51 7516 50 2357 54 2292 57 2355 53 2326 56 2366 58 2470 60 4887
3833 -8.2316784299900334 -11.557602367471292 105.99605896928578 46 64 27 1.9789008174512803 36 1831 49 7425 51 7444 50 5764 52 7526 52 7528 54 3542 54 7577 50 5762 52 7522 57 3931 57 9157 53 7541 56 5859 59 3897 59 9163 55 7634 58 5767 58 5771 60 9120 60 9126 62 7477 62 7482 61 7494 61 7497
2894 -18.12781413298633 -37.267407338333442 93.620323942260185 109 125 125 1.106913924944166 36 5269 51 2715
3266 -5.4380798888488311 3.9119686275458907 113.97809885684018 118 119 82 0.57407523771005842 36 4960 49 3948 51 3931 50 4949 52 3809 54 4017 57 4381 53 4009 56 4945 59 4379 55 4030 58 4946 60 4419 62 8775 61 4040
2899 -17.863675141866434 -32.974476822613269 93.102700291619328 117 130 131 1.264993419409115 36 7147 51 2769 54 2741 59 6347 55 6343 58 7540 60 6316 52 6357 54 5058 62 6222 61 6251
3115 -20.417457771015776 10.506280871574532 117.94414578672863 181 177 158 0.79955719871814113 36 4917 49 3476 51 3463 50 3496 52 2266 54 4258 57 4634 53 4253 56 5192 55 4607 58 9439 59 7755 60 7841 62 4224 61 7243
5845 -18.238913282692483 -49.420715754949107 84.364700351477751 151 158 163 0.43715785797852447 49 3486 50 6754 51 3500 52 5496 54 4628 57 5595 53 5492 56 6803 59 5523 55 5514 58 6696 62 5422 61 5426
3785 15.693206701791823 -17.277645931558631 106.57138384911332 205 212 196 0.64524916963351142 36 9257 51 7169 50 8829 54 7299 57 9405 49 3026 50 3032 51 3000 52 3059 54 2999 53 7264 56 3031 56 5597 59 9441 55 3035 55 7342 58 1927 58 5530 60 1785 60 9414 62 7180 61 7192
2910 -21.87041179658776 -27.339969601682217 100.05231966487082 195 183 171 2.0881213631273416 36 970 50 2910 52 2938 54 2862 57 3143 49 6664 53 2873 51 6669 56 8038 52 6731 49 6665 59 6726 55 6752 55 6791 56 8002 58 7898 60 6698 62 6615 61 6633 61 5135
3628 12.601779366075494 -42.879314274470033 90.765928023819811 152 181 181 0.37138416943281194 36 2413 49 5739 51 5746 50 7015 52 5755 54 5815 57 5853 53 5742 56 7071 59 5783 55 5767 58 6955 60 8431 62 4591 61 5674
5326 -32.803063917147874 -42.773288719955794 86.554283726461861 82 100 115 0.49399956976392723 49 2660 50 2649 52 2666 54 2587 57 3437
3218 -24.976778127870499 -0.97389444069939379 113.51287199614362 56 37 33 0.41325351037838504 36 4077 49 3829 51 3826 50 4854 52 3695 54 3895 57 4261 53 3891 56 4839 59 4268 55 3929 58 4853 60 4311 62 3821 61 3943
2915 -33.117510953926832 -25.249921710834421 98.196170078745453 54 64 72 0.31526630471689399 36 3626 49 2956 51 2928 50 2959 52 2982 54 2910 57 3087 53 2916 56 2936 59 3202 55 2952 58 2951 60 3186 62 2866 61 2870
3735 15.014945018893069 -23.206469888926357 98.313904111099632 119 117 118 1.5654781359221317 51 6774 50 8025 53 6815 56 8148 59 3564 55 6857 58 7989 58 8014
2916 -2.7490346351745965 -21.212261550331995 103.40904302336185 78 112 82 0.6847845097324452 36 259 51 2944 50 2975 52 2997 54 2925 57 3072 53 5044 56 4249 59 3182 55 5338 58 2974 60 4903 62 6895 61 6893
2918 17.070221109195021 -20.673218671773103 104.04134770438972 85 85 81 1.2309292580239926 36 3234 49 2978 51 2953 54 2941 57 3057 53 2216 56 2971 59 3162 55 2988 58 2993 60 3140 60 6654 61 2906 61 6956
2922 -34.573492292012375 -22.441388406036435 99.452292202536128 56 44 46 0.82658243500223838 36 3684 49 2993 51 2969 50 2995 52 3023 54 2953 57 3044 53 2949 56 2980 59 3670 55 2996
3226 0.92151221402457517 1.1058648333790309 115.58281569067275 80 93 66 2.057636470569971 36 6930 49 3842 51 3839 52 8601 57 8421 52 8629 53 3907 53 8645 52 3706 54 3909 49 8591 56 8518 59 8488 55 8783 54 3250 58 2517 58 8550 60 4320 60 8534 62 3842 61 8654
2923 -15.636526112321281 -19.568826157299032 103.13394896653027 188 190 185 1.0424652885267496 36 3258 51 2973 50 3000 52 1973 54 1958 49 7016 50 8272 57 1711 53 1968 56 1939 51 7031 58 1940 60 1776 62 2168 61 1956
2924 -34.381067494184066 -21.343928782372014 99.435720165338353 101 80 76 1.1477681520851575 36 7450 51 2981 50 3009 52 3032 54 2967 57 3766 53 5353 56 4321 59 3727 54 7179 52 7146 55 5420 58 4290
2926 -34.55081806415302 -20.622884512565197 99.585730341351521 244 219 217 0.71986291386986145 36 3273 49 3013 51 2988 50 3019 52 3043 54 2977 57 3021 53 2972 59 9516 56 3008 55 5442
2927 -2.2501133316650814 -16.969388999805364 104.72125974504343 186 186 169 2.4998986856774503 36 3222 51 2995 50 8587 51 7137 54 2988 54 7283 57 9427 57 9455 53 7223 53 7242 56 4361 59 3124 59 3776 55 5458 55 7332 58 3034 60 3100 62 2964 61 5353
5859 14.064164924052504 -45.573060016145739 86.334618271304336 235 230 225 0.78931242088834785 49 5529 50 6799 51 5538 52 5539 54 5598 57 5054 53 4627 56 3902 59 5026 55 4637 58 3473 60 5003 61 2434
2931 12.821307553599494 -15.88862789556423 106.29648664915482 254 232 225 0.36445749841332808 36 1823 49 3041 51 3010 50 3045 52 3072 54 3018 57 2989 53 3004 56 3042 59 3100 55 3051 58 3051 60 3082 62 2988 61 2972
3815 -34.968330211620611 -16.575217379688446 103.8363961094658 30 43 47 1.0376659636978693 36 3219 52 7441 56 5784 59 9244 55 7546 58 1899
2938 11.824459946416663 -14.04526962511839 107.65476042553955 246 237 229 0.64295684669433151 36 2201 49 3067 51 3039 50 3070 52 3090 54 3038 57 2236 53 2212 56 2203 59 3076 55 3080 58 1907 60 2131 62 1885 61 1918
5877 -20.436663128808245 -47.124644233344391 84.101256325550068 188 208 224 1.6983357164492547 49 5574 50 6850 51 5585 52 5584 54 4685 50 3660 52 4530 57 5098 61 5504
3306 0.2342146412824832 6.9101130637852819 115.77411343601375 27 51 15 0.64577311147043093 36 4325 49 4047 51 4027 50 5060 52 8999 54 9124 57 4483 53 4106 56 5039 62 9069
2939 -32.585596725119828 -16.162204949199694 102.22509788674863 217 226 237 1.8972234054180157 36 9394 49 3070 51 3041 50 3074 52 3093 54 3040 57 3893 49 8492 50 4506 51 7352 52 5389 54 6385 53 5478 56 7345 59 2123 59 3861 55 1911 55 3500 58 2179 58 4430 60 2130 60 3858 62 1884 62 5357 61 1917 61 3497
3823 -28.904377062492237 -14.694184827308641 102.31806846568435 135 151 162 1.6469452684229289 36 9339 51 7385 50 5711 57 9198 53 7499 56 5820 59 9209 59 9223 56 5806 55 7580 55 7594 58 5720 58 5739 60 9163 60 9187 62 7410 61 7420
2940 -31.921327594698148 -15.934885823508017 101.36892683126317 41 59 72 0.62953893507179604 36 9391 49 3072 51 3043 50 3078 52 3097 54 3044 57 2957 53 3031 56 3073 59 2200 55 3084 58 1906 62 3018 61 1914
2942 13.899701398083497 -12.249632094827827 109.2500680350407 164 96 84 1.316903744598162 36 3129 49 3096 51 3070 52 3125 54 3066 57 2928 53 3052 56 5882 49 7433 51 7461 55 7654 60 9098 62 1869 62 7495 61 7516
5358 3.4969591476643469 -33.457118747744637 95.366280215698978 168 146 138 0.14882668721618791 49 2774 50 2771 51 2751 52 2793 54 2186 57 1676 53 2722 56 2748 59 1628 55 2763 58 2779 60 3371 62 2131
3606 -1.253844822077274 -47.272714718636934 86.611593025896568 222 225 234 0.43138515185401044 36 5047 49 5533 51 5543 50 6804 52 5542 54 5603 57 5643 53 5538 56 6850 59 5579 55 5568 58 6743 60 5529 62 5465 61 5468
2945 -35.914136751310075 -14.718236489697102 104.92678721340488 31 34 40 0.50340025601044258 36 3825 49 3105 51 3080 50 3109 52 3129 54 3071
3091 -19.328146461987281 7.6153052791148097 114.8679295645783 26 36 14 0.73607289055079528 36 4300 49 3439 51 3418 50 3461 52 2229 54 3406 57 2541 53 1933 56 3473 55 2213 58 1684 60 1923 57 7377 61 1722
2946 -36.224543496051979 -14.691980034705153 105.01170812781417 216 216 224 0.61972297113627872 36 3824 49 3106 51 3082 50 4559
2947 -32.037158894072675 -13.392895155408192 103.94749842739486 57 53 52 0.28053578709155669 36 3853 49 3113 51 3085 50 3115 52 3133 54 3075 57 2917 53 3069 56 3104 59 3038 55 3109 58 3111 60 3010 62 3049 61 3039
13834 -3.623744075687128 -23.536673040421064 100.6865805428076 80 83 69 2.2988865001758549 49 6769 51 6760 57 6949 56 8145 55 6875 58 8003 60 6827 51 6800 52 5138 56 8174 55 6902 61 6749
2949 -31.883333320716165 -12.850016464835578 104.08382534393445 228 219 199 0.96637592045609477 36 3860 51 3092 49 7511 51 7537 50 3122 50 5853 52 3139 52 7617 54 3079 54 7684 57 2905 57 9060 53 3077 53 7642 56 3117 59 3032 55 3118 58 3120 60 2999 62 3055 62 7572 61 3050
2951 11.975415958674505 -10.070859440435848 111.67920828518962 80 79 82 2.3192135867994672 49 7563 51 3097 50 3130 50 3139 52 5487 52 8513 54 3086 54 3606 57 3995 57 4947 53 3602 56 4561 59 8987 55 7803 55 3132 58 5940 58 3133 60 8959 60 2988 56 3136 59 3011 56 6049 53 7742 62 3072 62 7646 61 7659 61 3061
3614 0.85471322560992646 -45.458585044646867 86.144089390456372 70 102 112 0.94612374974910762 36 5506 51 5594 50 3646
2953 5.9221293431516271 -9.048512898777437 108.68688552660346 179 173 157 0.58850686177055789 36 3970 49 3130 51 3105 50 3550 52 3149 54 3621 57 7673 53 8431 56 7451 59 8980 55 7809 58 2176 58 5948 60 3997 62 7644 61 3628
3099 -34.720409369613449 6.3332212453170751 114.09608119821448 39 48 19 0.58066208026820587 36 4258 49 3451 51 3437 50 3475 52 2245 54 1680 57 2515
2954 8.481671785710688 -8.9647222760058725 109.54019492007323 63 67 42 0.87686202812302194 36 3087 49 3132 51 3107 50 3143 52 3153 54 3096 57 2884 53 3104 56 3144 59 3006 55 3140 58 1857 60 2092 62 1847 61 1867
2958 17.736566284415268 -9.2481598160284229 110.87737723017794 208 206 210 1.4790504193025662 36 3071 49 3140 51 3116 50 3148 52 3160 54 1881 53 2208 56 1849 59 2070 55 1858 60 2199 62 1838 61 7754 61 1859
5151 7.1807679989514792 -43.973604635273475 89.030499686019198 103 123 128 0.82602808069944766 49 2192 50 1591 51 1577 52 1514 54 1549 57 1556 53 1528 56 1521 55 1528 58 2601 60 2315
2959 -33.725564489530989 -10.96026338657663 104.91842144544844 80 90 96 0.56674857436771331 36 3150 49 3152 51 3122 50 3153 52 3166 54 3109 57 2869 53 3117 56 3159 59 3993 55 3656 58 4574 60 2973 62 3518 61 3083
2961 17.553707795878708 -8.428416347325463 111.24470672455034 217 214 221 1.7160357973012976 36 3049 49 3159 51 3130 50 3162 52 3170 54 3118 57 2860 53 2207 56 2198 59 8881 52 7759 53 7804 54 7837 59 2163 58 1835 58 6044 60 2072 62 1826 61 1848
3171 13.945138762443461 -4.8953882991848188 110.58657808409117 183 178 176 1.6319251348889214 36 7570 49 3692 51 3700 49 7894 50 4736 52 3562 54 3173 57 2799 53 3172 56 3225 58 3218 60 2895 62 2411 62 3650 56 4700 53 3749 61 3162
2962 15.511830220983365 -8.049808873019245 111.79656688529356 49 63 25 0.56528248075135257 36 4042 49 3161 51 3134 50 3165 52 3172 54 3120 57 2858 53 3127 56 3176 59 2976 55 3164 58 3164 60 2952 62 1828 61 3106
2963 -28.150348007642137 -9.0769140968118496 105.24263365410735 67 77 64 0.91513135415069002 36 3918 49 3163 51 3136 52 1869 54 1871 57 2118 53 1877 56 2151 59 2062 55 1849 58 6053 55 7902 60 2957 62 3110 61 3101
2965 11.617266758101827 -7.358768065804588 110.54997117102789 68 68 68 0.56837934251454525 36 3051 49 3166 51 3139 50 3171 52 3179 54 3125 57 2856 53 3129 56 2150 59 2058 55 3165 58 1833 60 2070 62 3116 61 3686
5658 20.339254821013686 -34.161857124014794 96.588590469585412 229 205 204 0.26825050303566639 49 6231 50 7497 51 6208 52 4869 54 5009 57 4350 53 6233 56 7529 59 6277 55 6258 58 7474 60 6258 62 6152 61 6169
3684 15.654770858569622 -31.506690464254657 97.991425187684172 90 95 101 0.87146212002926726 36 6389 51 6353 50 7636 52 6378 54 6410 57 6496 53 6367 59 6413 58 7590 60 6380 61 6312
2967 -25.113729334306164 -7.9071150163767783 106.43692826967563 33 53 61 0.67840821750739078 36 2178 49 3636 51 3146 50 3180 52 3186 54 3132 57 2845 53 3140 56 3187 59 2964 55 3173 58 3174 60 2947 62 3124 61 3118
3694 -32.784799384657269 -33.03862163521061 94.45481470098315 145 153 160 1.2899195478982777 36 6227 51 6420 50 7701 52 6447 57 5485 59 5508 55 5126 58 3993 62 4917 61 5032 60 5454
2969 -34.611515359542551 -9.4792587526531342 105.06952702171772 39 34 33 0.58146593306636996 36 3921 49 3177 51 3150 50 3183 52 3189 54 3137 57 2840 53 2178 56 3191
3179 16.83430162535667 -4.6231038685116053 113.09918073582327 204 200 177 0.57611420981764383 36 4141 49 3711 51 3717 50 4758 52 3591 54 3780 57 4158 53 3785 56 4729 59 2921 55 3217 58 4718 60 4185 62 3172 61 3177
2970 16.764003641291669 -7.108168911379134 112.814808959 85 98 75 0.65850316957971489 36 3028 49 3181 51 3153 50 3189 52 3193 54 1859 57 2105 53 1863 56 1834 59 2048 55 1837 58 1826 60 1788 62 1579 61 1357
2975 -34.399672032119241 -8.7347556700205295 106.14599042250988 62 61 67 0.62724357831698718 36 3936 49 3195 51 3166 50 3194 54 1856 57 2232 56 1830
3282 -2.7471210624721221 5.1532326056464166 114.47192412851714 80 82 65 0.51273135151889937 36 7191 49 3988 51 3970 50 8696 52 4426 54 8957 57 7058 53 8932 56 4984 59 7128 55 4079
2979 -29.646322920775404 -6.5852524260699745 106.84989678847687 186 194 179 0.41841069001161113 36 3966 49 3211 51 3184 50 3217 52 3223 54 3171 57 2801 53 3170 56 3223 59 2935 55 3206 58 3216 60 2896 62 1803
3131 -32.744876102631096 -13.994888546101651 102.49803083605157 80 98 113 0.60748753727194937 36 9286 49 3523 51 3520 50 4555 52 5437 54 3560 57 3938 53 3545 56 4517 59 9141 55 3640 58 4488 60 3926 62 5417 61 3560
2986 -28.167382102007867 -4.8431985839829332 109.04707351129275 58 74 81 0.27373435004876578 36 4002 49 3239 51 3214 50 3239 52 3247 54 3193 57 2772 53 3197 56 3251 59 2904 55 3237 58 3251 60 2860 62 3190 61 3196
3801 -1.6616852151279022 -14.995698566292665 107.60470949841164 95 114 100 1.4391535964029243 36 9292 51 7250 50 4468 54 7395 57 9324 53 7356 56 5681 59 9347 55 7443 58 5618 60 3812 60 9311 62 5331
2990 -5.5346950378951822 -2.0641669638448268 111.73884574107402 100 108 61 2.1831850527966408 36 8082 49 3250 51 3224 56 6447 59 8463 55 8886 62 3195
5183 17.744282698996194 -40.327839420172431 94.16765687577724 134 128 126 0.7556893789264042 49 2665 50 1640 51 2233 52 1794 54 2164 53 1742 56 1844 59 1562 55 1730 58 1708 60 1540 62 1498 61 1531
3644 -12.545230404251701 -39.650980466489266 90.655014112668752 179 210 224 1.3176370830353381 36 5862 51 5986 50 7259 52 5996 54 6039 50 7247 51 5978 52 5979 52 5984 57 6094 53 5979 56 7302 59 6018 55 6022 58 7222 62 5901 61 5905
2991 -22.032081698857791 -2.9075049235577346 113.90517083688376 48 56 61 0.59744140158421577 36 4036 49 3749 51 3225 50 4795 52 3258 54 3821 57 2753 53 3217 56 4769 59 2883 55 3852 58 4783 60 4258 62 8430 61 3217
3590 -2.5413254280272617 -14.467310693807445 106.68817348930268 255 221 209 0.23658416890953454 36 9272 51 5437 50 5623 52 8616 54 7413 53 7375 56 5700 59 9324 55 7470 58 5633 60 9292 62 7309 61 7321
2993 -15.783313718747596 -1.8823896943808451 110.0377409012869 164 130 108 0.69773526048699586 36 2128 49 3260 51 3234 50 3256 52 2160 54 1831 57 2072 53 1835 56 1802 59 1811 55 1806 58 1792 60 2038 62 1783 61 1806
2994 -29.944245630864376 -3.6792381306499187 108.1229987654293 88 92 95 0.40556389462491776 36 3055 49 3264 51 3236 50 3259 52 3266 54 3837 57 2279 53 3835 56 4782 59 4214 55 3871 58 4795 60 4264 62 3759 61 3895
13824 -21.437574048735605 -45.573663789102689 83.219743227654135 91 120 134 2.9102197473950002 49 5652 50 6910 51 5639 52 5643 51 5665 54 5717 57 5761 53 5642 56 6967 59 5690 60 5615 36 5471 54 4704 57 5123 53 4695 56 3810 59 2180 55 2547 58 2576 60 2341 62 2472 62 5547 62 8264 61 2476 61 5550 61 5573
2995 -26.14476242291293 -2.7149429813055304 110.9441222513116 78 91 67 1.8060754504977965 36 4050 49 3267 51 3237 50 3261 52 3271 54 3215 57 2746 53 1833 56 7281 53 8513 57 7143 59 2022 59 8341 55 8634 58 4818 60 4280 60 8357 62 3771 62 8450 62 3228 61 3912 61 8530
3598 11.819681530888245 -12.947929581292474 107.3646776096156 174 168 161 1.7120732742892484 36 9059 49 5422 51 5482 50 3095 51 3063 52 2177 52 5446 54 7512 53 7489 56 5804 59 9218 49 7354 55 7574 58 3092 58 5732 60 3037 60 9177 62 5386 62 7416 61 3019 61 7429
3083 -3.5138907506107411 7.4225425344437586 116.26380971475032 92 110 77 0.74237836859474216 36 7339 49 4077 51 3397 50 3441 52 2208 54 3381 57 2567 53 1776 56 1770 59 1926 55 1783 58 1654 60 2632 62 1652 61 1699
13327 -30.849614371643582 -33.961592203442962 90.964726011487727 175 167 164 1.621670165600664 50 7595 51 6310 52 6342 59 5455 55 6349 58 3937 50 7613 53 6322 56 7623 55 6355 60 6332
3006 -18.521154686370192 -0.82538317103154291 111.39323677545141 151 152 144 0.39027669948194466 36 3013 49 3286 51 3257 50 3284 52 3292 54 1818 57 2061 56 1791 59 2009 55 1790 58 1679 60 2024 62 1678
3155 -27.689999937004579 -8.5183661354248219 107.39161887001974 73 67 72 0.34271569387690543 36 3931 49 3627 51 3641 50 4681 52 3494 54 3685 57 4069 53 3684 56 4644 59 4034 55 3702 58 4616 60 4075 62 3571 61 3703
3011 13.223555022814338 -0.052808884310209719 117.12760888451416 183 186 163 0.41981606037242625 49 3296 51 3269 50 3297 52 3304 54 3253 57 2707 53 3262 56 3324 59 2834 55 3311 58 3324 60 2780 62 3263 61 3277
5409 15.291999074780051 -24.950358075987783 104.22398615072504 181 183 183 0.491139475342103 49 2938 50 2938 51 2909 52 2961 54 2882 57 3567 56 1979 59 6843 60 6802 62 6735 61 6727
5712 -11.402827366905409 -26.075092808906028 99.591041613948832 82 64 58 0.15806194955003441 49 5149 50 4184 51 5154 52 5071 54 5198 57 3574 53 5178 56 4141 59 3522 55 5227 58 4096 60 3512 62 2391 61 5137
13898 12.435307597380667 -29.163318919636389 99.22175434048674 59 52 44 1.6231336002435091 36 6492 50 7748 52 6501 57 6627 53 6496 56 2033 62 2017 62 6432 60 1669 61 2048 61 6450
3013 12.657761924195787 0.40017812864805324 115.14710976850044 86 76 59 2.3199790740015995 36 2928 49 3305 51 3275 50 3305 52 3310 54 2181 57 2698 53 2170 53 8627 57 4277 49 8568 50 8434 51 8560 52 3707 56 4854 56 3332 59 1988 55 3319 58 1759 58 4868 60 2008 60 4323 62 1574 62 3832 61 1583
3668 5.8880341266115872 -33.356314714876923 95.743536054777962 79 120 134 2.5838170666483773 36 6191 51 6227 54 5018 49 2222 50 3572 51 2758 56 2756 53 5000 55 2768 61 4969
3022 -33.647770859311798 -1.2020287086453076 108.98483766897765 40 36 32 0.76411581491594405 36 4088 49 3324 51 3296 50 3327 52 3328 54 3276 57 2687 53 3281 56 3344 59 2814 55 3333
4396 14.621349563827616 -41.979122832992182 93.362886517664833 104 111 117 1.0430341348960295 36 1570 50 1618
5215 -32.756220909286014 -23.1619439899941 98.525854803518016 56 64 69 0.37748319735443969 49 2032 50 2050 51 2025 52 1984 54 1968 57 1805 53 1978 56 1955 59 1058 55 1297 58 1953 60 1059 62 1944 61 1273
3023 15.506597815975889 0.86621509724636436 114.91114528378996 207 204 202 1.4000184106407598 36 2906 51 3297 61 3289
3235 12.487374234832885 0.88399480784156292 114.98011007013008 180 160 144 1.1826802314938236 36 4227 49 3862 51 3855 50 4881 54 8687 57 8439 53 8658 59 2817 55 3328 58 3334 60 2770 61 3284 62 3279
4400 4.8902822101032362 10.751438289867712 118.74074158004834 94 115 63 1.0176555090954926 36 4428 50 1695 52 1567 54 1691 57 1234 53 4238 56 5174 59 1264 55 4267 58 1026 60 1274 61 1025
3027 -23.500863396003542 1.2796075063132699 113.90572641196755 199 180 164 0.43101790351758218 36 6799 49 3329 51 3302 50 3335 52 3341 54 3289 57 2676 53 3296 56 3358 59 2792 55 3352 58 3361 60 2742 62 1572 61 2167
4395 2.5635355386764029 -42.052312684865292 89.292172353318108 85 132 151 0.42125515175076589 36 2408 50 1607 52 1527 54 1567 57 1572 53 1549 56 1537 58 1524 60 1514 62 1473 61 1504
3381 0.45460289319794184 12.770415931623301 119.06652208467158 255 254 252 0.68025988392665238 36 4459 49 4239 51 4215 50 5229 52 4105 54 4301 57 4682 53 4304 56 5234 59 2556 55 2311 58 2366 60 2517 62 4268 61 4397
3031 7.1476865875395657 2.3848765380438519 114.61018076173286 194 183 148 0.57946335206000987 36 2911 49 3334 51 3308 50 3340 52 3344 54 3293 57 2671 53 3299 56 3360 59 2793 55 3353 58 8668 60 2739 60 6949 62 3303 61 3307 61 8772
3758 -33.978721487645004 -21.557126403707432 99.661837683718943 192 182 181 1.9061252406334173 36 6856 49 7049 51 7042 49 5334 50 8304 52 7123 54 7162 56 4327 59 3728 59 5748 55 5424 58 3018 60 3719 60 5817 61 7033
4415 8.2647944688917629 -0.39797967153540559 112.25765547391191 210 189 176 0.83222569392888335 36 6946 50 1893 52 1815 54 1816 57 2059 53 1825 56 1788 59 2007 55 1789 58 1694 60 2023 62 1361 61 1667
3038 -11.531634845843191 3.3521942697081064 113.43847453316158 42 47 46 0.63887114970943604 36 6980 49 3347 51 3320 50 3361 52 3362 54 3305 57 2657 53 3317 56 1725 59 1971 55 1589 58 1592 60 1989 62 1388 61 1410
3756 -33.235048098401585 -21.699680162514728 99.540282399083253 229 216 213 0.2953369822741107 36 7019 49 7042 51 7039 50 8300 52 7110 54 7146 57 9554 53 7106 56 8423 59 5858 55 7183 58 8307 60 5872 62 7023 61 7028
3389 0.39445983655102257 13.304549569089911 118.77499544379674 251 237 234 0.47833021198322545 36 4479 49 4258 51 4234 50 5253 52 4129 54 4332 57 4709 53 4329 56 5257 59 4735 55 4351 58 5290 60 4782 62 4298 61 4422
3039 -23.726303552776177 2.2712993422295069 112.41082353210666 252 231 229 1.1918616636758166 36 2968 49 3351 51 3321 50 3365 52 1704 54 1781 57 2026 53 3323 59 4368 36 6861 55 1613 58 1594 58 4935 60 2720 60 4407 58 3393 62 1589 62 3918 61 4025
3702 10.470635396745338 -28.855156664658519 98.964234954621162 159 135 127 1.0546316421146389 36 6502 51 6496 52 6527 54 6552 56 7810 62 6426 61 6471
3187 -25.311817030476625 -9.424580170133634 105.43753798388617 65 61 62 0.81100368121897037 36 9054 49 3592 51 3743 50 4644 52 3458 54 3647 57 4028 53 3641 56 4601 59 3988 55 4581 58 4572 60 4023 62 3512 61 3080
3042 4.9688209156961909 3.6305795860725705 115.1077998770119 69 78 50 0.64799055755271628 36 8019 49 3932 51 3325 50 3370 52 3369 54 3312 57 2650 53 3325 56 4942 59 4380 55 4593 58 4945 60 4420 62 1590 61 4036
3043 16.059204514204229 2.5810773821572304 115.24886831312415 220 218 211 2.2845912206803258 49 3354 51 3326 50 3367 36 7329 52 2199 52 3815 54 8855 51 4526 49 4560 57 2651 57 6960 57 9376 53 1717 53 8815 56 3377 56 7874 59 2770 59 7020 55 4032 55 8977 58 3392 58 8764 60 2721 60 7064 59 5865 62 1585 62 3939 61 3327 61 4049
5744 4.5610415348224178 -22.742735554934278 102.11659031757448 124 129 123 0.5949186016433653 49 4877 50 8075 51 6819 52 5147 54 5272 57 7171 53 6890
3700 -31.588087948085526 -31.399803432219517 94.253984595154861 56 76 85 1.6559784934974184 36 6294 51 6478 50 7750 52 6503 52 6522 54 6530 54 6546 57 5510 57 6641 53 6485 53 6507 56 7786 56 7803 59 6550 55 6543 55 6556 58 4013 58 7740 60 5475 60 6529 62 4945 62 6408 61 5057 61 6460
3710 -32.31074991902512 -29.000431827725397 95.065576877218589 60 55 70 0.59723420156214868 36 1673 49 6613 51 6607 50 7873 52 6651 53 6630 58 7850 60 6639 61 5110
3049 -21.603171937986783 3.2570758665094228 116.36401233868808 19 20 23 0.30853360429943982 49 3359 51 3333 50 3380 52 3377 54 3320 57 2636 53 3339 56 3388 59 2753 55 3383 62 3340 61 1641
3050 -5.7681839595007096 4.2435482370485946 114.43784651436505 100 106 73 0.67503390190818791 36 4233 49 3362 51 3336 50 3382 52 3378 54 3321 57 2637 56 3387 59 2755 55 3382 58 3408 60 2703 61 3343
3054 -4.1626412469041716 4.8456266817199474 116.037239215572 110 136 86 0.54365517452264966 36 2909 49 3965 51 3343 50 3389 52 3838 54 4053 57 4409 53 4042 56 5501 59 4430 55 4074 58 4984 60 4460 62 3974 61 4083
5247 -3.3533418132749189 -36.707665111434757 93.191982938296121 49 84 93 0.17288672453098411 49 1105 50 1224 51 1216 52 2119 54 2126 57 1647 53 1090 56 1088 59 1437 55 1204 58 1094 60 1591 62 1183 61 2133
3055 -24.427620336164118 3.1062713795312678 112.00317817749354 42 41 44 0.39361982540051921 36 4176 49 3368 51 3344 50 3390 52 3389 54 3330 57 2624 53 3351 56 3401 59 2744 55 3395 58 3416 60 4452 58 4974 62 3348 61 3355
3057 -10.540939734316757 4.6035488382372618 113.10175634067613 99 108 76 0.73229115228427455 36 7990 51 3348 49 8772 51 8804 50 3394 52 3394 54 3334 57 2621 53 3353 56 3405 59 2740 55 1742 60 1973 62 1603 61 1648
3139 -28.760681926404796 -11.646493719904171 104.40433294559158 65 77 65 0.64220512761080217 36 3877 49 7545 51 3568 50 5884 52 7653 54 7721 57 9018 53 7690 56 4564 59 9017 55 3612 58 4533 60 3982 62 7617 61 7626
3058 -9.1363351507527266 4.7796446361261458 114.09228809188627 41 63 24 1.3962378775227393 36 4240 49 1826 51 3349 50 3395 54 4056 52 8867 57 2015 57 4411 57 7061 53 1598 53 4044 56 1724 56 4981 59 7100 55 9051 58 1426 58 8854 60 1203 60 4471 60 7162 62 1396 62 3988 62 8880 61 4095 61 8980
13888 -23.704537007572533 -16.118224789325868 105.26552975065285 62 63 58 2.4133667904538303 49 5420 36 3789 51 5438 50 5633 52 5354 54 5501 53 7388 51 7262 56 5716 58 4388 58 4389 60 3822 51 7261 55 3473 59 3822 49 7252 60 3821 62 5326 61 5417 61 5418
3059 -28.986935622022063 2.6915539026030415 111.35379443526432 26 36 30 1.1851633310667078 36 4162 49 3374 51 3353 50 3400 52 1720 54 1585 57 2009 53 1649 56 8808 53 8934 57 7059 59 1955 55 1745 58 1608 60 1970 62 1608 61 1653
3061 -3.4917728011540006 5.1318864899701619 115.22151334470958 100 117 78 0.48455188622951595 36 2061 49 3375 51 3355 50 3401 52 2197 54 1705 57 2007 53 1715 56 1733 55 1750 60 1211
5754 -31.063929218688344 -24.028638796332075 98.561756889377406 252 252 251 0.19208180733751931 49 5251 50 4303 51 5258 52 5182 54 5307 57 3679 53 5273 56 4239 59 3632 55 5326 58 2968 60 3168 62 2887 61 2388
3652 7.6381369619541344 -37.181545080760991 94.020279790281421 205 201 207 1.2993182862235155 36 4881 51 6034 50 7317 52 618 49 638 50 642 51 630 54 608 57 847 57 6191 53 642 53 6065 56 635 56 7365 59 875 55 595 58 626 60 901 62 610 61 632
3063 -17.519975792737544 4.7685576569756059 113.99324964688503 32 42 36 0.60204122130935722 36 7022 51 3359
3662 7.7533993905532634 -35.503436728672327 94.423185469644693 220 209 202 0.30353983779374999 36 6102 51 6124 50 7400 52 6147 54 6213 57 5368 53 4190 56 3543 59 6548 55 4160 58 6683 60 5318 62 4793 61 4926
3147 10.142352535035624 -8.9671746187375359 107.09758241505368 97 102 96 2.1091248182966993 36 3086 51 3598 52 3156 54 3097 56 490 53 2209 59 485 55 490 58 494 56 2161 59 4968
3066 -22.720385307813622 4.2568905806710733 112.00090989443925 217 196 181 0.85594380943453896 36 4908 49 3385 51 3363 50 3406 52 3403 54 3349 57 2600 53 3372 56 8846 50 8734 59 7174 55 9110 62 4000
13391 -31.549966742456014 -3.5310898647505553 105.86601718879534 42 49 43 2.1407143741058285 36 29 49 19 51 24 52 22 54 20 53 21 57 18 56 19 59 19 58 17 50 6377 52 6236 54 3857 57 7037 53 3238 53 8506 56 6791 59 2860 55 20 58 2515 60 22 60 2836 62 3216 61 24 61 3224
3070 -25.826226039845054 4.457233241908968 112.91831672558367 51 38 28 0.28059769525439238 36 2941 49 3397 51 3373 50 3420 52 3412 54 3363 57 2589 53 3389 56 3439 59 1938 55 1763 58 1630 60 1952 62 1625 61 1677
3660 -32.387801180346592 -38.4739647900454 87.759493413684069 74 78 93 1.9277226810583059 36 1066 49 6121 51 6095 52 4798 49 4912 54 6186 57 6210 57 6245 53 6081 53 6118 56 7387 56 7421 59 6115 55 6118 58 7298 60 6089 62 5993 61 5997
12723 -9.0054700268886485 -29.046028528009142 97.63008093649114 50 56 36 1.7081459888265609 49 2868 36 3390 51 2842 50 2868 52 2892 54 2814 57 2202 53 2820 56 2164 59 1692 54 6535 56 7795 55 6551 58 2032 58 7722 60 1676 62 2013 62 6419 61 2045 61 6449
3072 -2.0539923630513175 6.3021082137417883 115.6603002544355 133 122 95 0.66831617672243515 36 7261 51 3375 52 3414 54 3366 57 4453 53 4077 56 5016 59 4480 52 8948 54 9060 58 2225 60 2662 62 3381 62 4036 61 3381
4016 -14.717930716117618 20.04601553025746 121.05551468650636 18 40 3 0.85919348499698123 36 8074 49 8287 51 8306 50 6663 52 8402
3073 -6.3538369843151195 6.3076016018297496 114.86238809415862 34 47 15 1.3359234651932617 36 7241 49 3400 51 3377 50 1727 52 1729 54 1611 57 1985 53 1751 56 1755 59 8210 55 4577 60 2659 62 1635 62 4017 61 1682
4020 -29.315731790826746 18.390651958866648 118.52730226193212 19 24 7 0.35445792740741877 36 7936 49 8300 51 8323 50 6681
4024 -35.769265031950177 18.403686380935717 122.43734054943522 23 22 25 1.5439911147192376 36 7860 49 8335 51 8329 50 6693 51 1084
12677 18.067558256717899 -40.606065335635549 94.210550078501285 218 206 205 1.5398575554003926 49 4821 50 7167 51 4794 52 4709 54 5984 50 7183 52 5927 59 2263 52 5895 58 7143 60 5917 61 5836
3082 -13.475347165449692 7.1253947717954436 117.08017485233516 93 111 80 1.2777992578511372 36 2890 49 4061 51 3394 50 5071 52 3943 54 4150 57 7282 53 9144 56 5057 59 7398 55 9310 60 4587 62 4069 61 9241
4028 -15.674026962676324 20.577363195308038 121.61872964484023 73 99 65 1.443963583476001 36 2689 49 8326 51 8339 50 5498
3087 -24.177705735924082 6.3429167646317026 111.91561977568021 46 35 20 0.62407023774475723 36 4262 49 3429 51 3408 50 3451 52 2219 54 3394 57 2556 53 3421 56 3462 59 2677 55 3461 58 2255 60 2627 62 3411 61 3409
3088 -19.71530372360543 7.1994008236661671 115.07202074671943 44 54 30 0.40331682061745189 36 7187 49 3432 51 3411 52 2222 54 3398 57 2552 53 3424 56 3466 59 2666 55 3468 58 2265 60 2618 62 2186 61 3421
