# 3D point list with one line of data per point:
#   POINT3D_ID, X, Y, Z, R, G, B, ERROR, TRACK[] as (IMAGE_ID, POINT2D_IDX)
# Number of points: 405, mean track length: 4.1808093994778064
5779 4.5525843319542076 2.0111380707857229 8.4738931050717223 127 96 57 0.36557960874485546 33 140 59 226 51 100 54 387
5781 0.15754136786456904 0.53634283514575709 3.1817806624344036 50 41 39 0.4957342205724462 33 84 59 233 16 67
5785 5.7350328522563379 1.3661030862968953 10.989753581525004 142 104 60 0.24953385556835439 33 211 59 256 54 366
7010 0.62345369504069659 -0.67063709110282166 2.1311815204099021 55 38 21 1.8291599662580194 21 543 53 867 22 848 23 185 45 483
5789 1.0624184004857873 1.3782726467921818 10.795993105731375 111 80 47 0.19079668617343704 33 152 59 267
5790 6.373844352707728 2.2050486596883085 7.9113392178862956 91 70 41 0.53571274910591293 35 225 59 272 54 535 44 160
5794 3.6166562647324998 2.4237108533753893 7.0699184180855745 172 127 70 0.3077005407789738 32 139 33 133 59 284
5802 5.7760041727050995 1.049396025512684 12.123196338292358 140 103 60 0.16301422370259636 32 228 33 235 59 355
6968 0.46072423832912324 0.081238616063539673 2.0984403282090334 0 0 0 1.4006013614804724 16 240 22 152 25 189
5803 3.7880852249496959 2.8237077722818311 5.443561317038534 83 61 36 0.23957539428822108 35 184 59 395 51 241
5810 3.5761620323294534 2.4907496233845254 6.7312978108832633 109 81 47 0.39192457881908682 32 171 33 252 59 430 51 227
5811 0.16169521634842093 1.9909645495587198 8.5648663934787894 116 87 51 0.51868097900304555 33 262 59 435 32 247
6407 1.8297894979196785 1.6753345234632164 9.4901730100038471 171 127 72 0.20256316798031879 35 1644 51 886 47 630
5814 0.32705497762884189 -0.022585553373602751 2.2684321425495209 72 41 34 1.8607712031456907 33 97 35 119 42 139 44 466
5818 0.48688994180566469 1.4830897655140793 10.436044669869093 142 104 60 0.77183745962162975 33 278 59 465 32 266 47 179
5819 6.564239590297035 2.0577135700134899 8.44260949050976 155 113 64 0.89356822592483243 35 160 59 469 54 542
5821 12.833041799177344 -3.0358544953393776 26.461247666784136 89 67 39 0.16350391842299666 32 206 33 216 35 417 59 489
5822 4.5792867199341822 2.1537570830760098 8.0374496286921335 108 82 48 0.12522503766391815 33 245 59 493 51 293
5829 0.50239611350712321 1.5372083513307113 10.123807597004696 89 66 39 0.34723896513876656 32 359 33 316 59 543 54 533
6487 0.12873616741607877 0.98251030918481119 2.6335473802822515 52 40 35 0.65091207832312858 59 336 54 55 45 24 56 100
5830 4.4261883507738276 1.9880033131687536 8.5958791528510226 81 59 35 0.055723415703014423 33 276 59 544 51 309
6185 5.3846348072827137 -0.90078191386169748 19.436431211307692 85 62 36 0.079097527656523101 29 1938 35 2177 59 2500
5835 5.8599439960481288 2.2915069616947665 7.5898490106410561 137 101 59 0.41190851809777412 35 356 59 558 54 1234 44 164
6994 0.073566239744790457 0.84016396310072949 2.6700421061396638 46 34 43 1.5139720313042426 35 2535 21 405 19 405 24 438 23 456 20 416 45 706 39 980 42 1819
5837 4.4819074993374999 2.2002314908734957 7.9116391469669285 146 107 61 0.31814618570630954 33 270 59 565 51 324
5843 0.009586135246900029 2.1191271029926368 7.9863373226352872 83 64 38 0.17837434929929533 33 254 59 599 32 242
7220 0.36164643345852265 -0.79409576061698783 2.4032018429671145 182 105 79 1.4588251805263162 22 361 25 486 21 536 53 319 19 436 24 465 23 468 20 337 45 463
5846 3.4352004704626515 2.6398417353783699 6.199502911370125 130 93 54 0.57521785791818247 33 247 59 603 51 370 54 456
7224 0.43715373111376421 -0.71844011531476093 2.3720833519777074 46 18 11 0.79419054608496731 17 339 18 463 22 483 53 870 21 890 25 851
5850 6.9753701631750182 -1.111986104936306 20.574230261425228 49 36 22 0.73944294318958947 14 301 35 409 59 669
5851 2.348881864265008 -1.8648415821613762 4.5018725464201381 124 94 56 1.3258298241310067 16 1542 59 670
7219 0.28215171952653384 0.084974091602428845 2.372206111512309 103 72 62 0.76939193624180213 17 877 22 606 53 1146 35 1790 32 937
7074 0.30566423877001603 -0.078127965111706416 2.3297283237950182 187 136 73 0.63483763758613465 25 682 21 1080
5853 1.6497498012979281 1.6479830813608289 9.7702900510513491 88 64 37 0.5838143095243713 35 531 59 695 51 473 54 1221
5854 -0.41879677018466882 1.8823530621061038 8.7843648667253404 79 60 36 0.080066909603910622 32 494 59 697 54 1275
5861 5.127869944799464 2.0078218321827679 8.524276517017265 132 99 59 0.58299226126163106 33 312 59 750 51 307
6519 7.6900349082635238 -18.761592920073678 35.939491292838746 85 60 35 0.12274947055175078 14 619 54 319
5862 3.0153929519158824 2.9427465699941457 4.9538599478295584 172 127 70 1.0433089175889585 58 437 59 751 51 530
5866 4.6076534447994755 1.9508239313604574 8.7320024468231221 131 95 56 0.32516407373317907 33 466 59 791 51 477
7032 0.42478389087145851 0.56025700639678877 2.3406209201989308 177 128 73 0.63073342866747895 25 1093 21 673 19 1013 24 1141 23 859 20 804
5867 0.33120607514304468 -0.26974577532300403 2.704807589704695 246 200 150 0.5642770593250197 35 149 59 833
7026 0.22212612289555883 -0.058297456196198361 2.8137981887276502 93 73 91 1.0283495649692092 25 1014 21 630 19 357 24 522
5869 6.2993194138311965 2.098389679531405 8.3970860724484186 83 61 36 0.80128380503517571 35 584 59 835 51 484 44 340 42 320
5875 2.4701265655609475 1.058471308851892 11.965611708699557 103 72 41 0.3828614579868061 35 510 59 865 47 352 58 512
5878 6.3556553819662644 1.329262167938194 11.124654830433505 89 66 38 0.10564873045689697 33 436 59 885 54 856
5882 6.5830165050110638 1.1387823571233324 11.850472253177806 84 61 36 0.4024005242805706 33 428 59 906 54 845
6984 0.09681790994470367 0.63097840696011365 3.1551623048845698 30 17 45 1.4751098002503837 25 244 21 295 19 237
5883 3.2648072239497523 0.73823203304218477 13.26112413589798 103 73 42 0.37001738758781727 29 378 35 722 59 909
6978 0.27350373003615502 -0.072672626398257736 2.7990076036130125 41 20 71 1.413829326603629 22 239 21 211 53 211 19 283 56 748
5885 0.63203561265014374 -1.173667288699024 2.2649087629701312 238 54 50 1.7154298554942187 35 819 59 915 51 224
5886 0.72777223081507936 0.33524222364350048 14.693234617913999 74 56 33 0.069544926767339685 32 437 33 417 59 917
5887 8.6561417081481196 1.1186023507229301 11.884985770911644 100 76 45 0.62755761547623157 35 1125 59 926 16 1206
6326 4.5717691157013878 -0.80731358573361212 19.221271785011812 89 65 37 1.3667190515427361 29 1665 59 2537 16 1423 14 1465
5895 7.5206783963276145 -1.0754498671080441 20.018175280491011 54 38 23 0.61342555420680178 32 806 35 797 59 955
5896 8.8397980033050292 -3.0332154974858412 27.271520995149888 49 37 23 0.11699411811188257 14 304 59 958
5898 0.29132507745707131 1.605335713013303 9.8435680735747315 88 64 37 0.23333403530226271 32 357 33 311 59 963 54 904
5903 3.9937838079982875 2.2483522477309412 7.7339545259737097 146 107 61 0.13039010834319259 32 343 33 294 59 977
5906 0.48411176248621313 -0.45449894902382648 2.32096196834837 190 139 80 0.98343923147113688 29 168 58 1128 59 990 28 235 51 611
5908 -0.35369747190788292 2.1793521089530943 7.6068304798436319 132 99 59 0.042983655723544394 32 506 59 1013
5911 2.7687596543818636 3.1347247555450912 4.2290126361063578 217 166 99 0.73082369718536977 58 448 59 1058 51 548
5920 5.5140802209195483 -3.2535017804903679 27.828774118713795 0 0 0 0.254012577409645 29 1632 33 1252
6749 0.90167388597983122 0.37025039020929773 2.4309235852752371 241 239 238 2.0466752332492146 3 1000 55 873 43 918
6604 10.074121071886994 -9.6320288166705126 33.838739547464662 12 9 5 0.22942792505433751 32 843 54 1435 33 943
5922 7.8787190824770477 -0.45453285759829631 17.825164872270427 95 68 39 0.21030841005005321 32 1376 33 1136 35 1320 59 1192
5928 10.90184390076972 0.47611177905402879 14.552512757880686 83 61 36 0.5568516894579485 35 1062 59 1207 16 1118
5930 7.6523951849428222 0.16758679194124806 15.499019881006749 101 77 45 0.1318250176321136 32 1459 59 1209
6829 0.57436846438669709 -0.39966339073782692 2.2602864058885315 65 85 99 2.0289633692387121 22 494 25 497 23 269
5938 6.1287450990123027 0.45159917743648315 14.354628464212665 106 74 43 0.29084927462656873 32 604 33 1082 35 751 59 1238
7645 0.35669818054625047 -0.26650375083179501 2.3681491623110675 28 19 20 0.37496320150042539 23 248 20 350 45 816
5939 4.3521817027542911 0.27959720688621692 14.991042625512293 87 63 37 0.24284406375666595 14 488 35 743 59 1240 29 590
7633 0.4890068152837308 -1.0954586924879746 2.057626826444154 239 57 55 0.67836533798696885 23 155 20 154 45 214
6310 7.9287055686636441 -0.68602610874078973 18.976785132449486 89 64 37 2.3153624049108008 33 2093 59 2486 35 1296 32 2282 59 2474
5943 4.0077074297347952 0.33909350443962916 14.77422047562122 84 62 36 0.26603380762918433 29 585 35 737 59 1245
7642 0.2247084632177023 -0.15942981440909174 2.9333901602503905 28 21 19 1.9431050049860843 23 609 20 320 45 800
5944 9.223012188530566 0.94628544133763581 12.6976383458006 100 76 44 0.31811075749151663 35 1109 59 1248 54 1722 16 612
5946 2.495517551549792 0.2828527085704014 14.899213432489775 95 69 40 0.45023434315287397 9 710 29 589 59 1255 54 1733 16 627
5947 4.1515875212612858 0.49419148990719691 14.313115909800505 95 68 39 0.17823170112741882 14 779 35 1134 59 1256
5952 0.83555080135786752 0.44158271243450836 14.110030284726413 132 99 59 0.36882693826191593 28 559 32 622 33 591 59 1286 15 570
5955 0.49933283621330926 0.53566154365821239 13.834679434617344 81 61 37 0.41871295125274088 32 634 33 525 59 1295 54 1782
6390 0.94460252130714273 -0.14881255485057734 2.2782017679986062 73 30 24 1.5998417909790965 32 380 51 621 33 335 14 303 35 501
5959 0.54754018877779731 0.55921829793254241 13.714548549987933 77 59 35 0.12533648933589847 32 638 33 528 59 1302
5962 5.4016428718423022 1.313920665566652 11.108666191328444 89 65 37 0.18919151516847121 32 594 33 567 59 1320
5963 5.034111160632837 1.2731871017346728 11.152211885058469 148 108 62 0.097743486768664109 32 595 33 739 59 1322
5964 5.4491868051329071 1.3417891140889628 11.011978262596152 88 65 38 0.12870161671355471 32 580 33 572 59 1324
5979 0.2377393666531743 1.4433997512933932 10.305500531886302 144 105 61 0.56723397576739831 32 752 33 610 59 1376 47 524
5984 3.580051252388694 1.9783833182288826 8.1829323208072005 131 93 54 0.42592886741504138 33 623 59 1403 32 719
6813 0.24197969443609249 -0.15254448775274076 2.7691422403476489 76 83 92 1.0302218643088228 22 320 25 382 21 206
5986 0.36883834790059383 1.6849482168970122 9.4106035267801147 132 94 55 0.21805872202537654 33 501 59 1407 32 485
5987 4.699053549999709 2.1802256694760258 7.7905245803289285 172 127 70 0.233631277999506 33 475 59 1408 51 990
5991 -0.27158484791128978 1.6815014147846328 9.5640406637183144 77 58 34 0.38144570870463629 33 502 59 1417 54 630
6811 0.5103867307740414 0.067643703184065526 2.1349360070313717 24 17 25 0.27085003298219623 22 699 25 355
5992 5.44945960793138 2.339849684433061 7.334274262606673 155 113 64 0.50412932017314249 35 661 59 1418 51 758
5994 0.37541556797138487 0.21134514118147962 2.310087196928309 98 72 47 1.0126120218339405 16 175 33 273 59 1438 51 552 24 93 45 283 56 469
5997 0.93320387249391346 2.1877391878286216 7.7034539189630591 155 113 64 0.5128746499431166 35 565 59 1448 51 760
5999 2.0186187023786082 -1.1157483375895854 19.952765747770663 110 85 50 0.27151495941431841 32 1350 33 1350 59 1459
6374 2.6197014802153626 3.3095655387370311 3.633203736023626 81 60 35 0.34923550014473359 59 633 51 391
6007 5.7217767073597905 0.8224135232922416 12.877941828493542 131 93 54 0.22935754569701161 33 1442 59 1497 32 1524
6008 3.4806283379269169 -2.1920670155118747 23.23462638135446 124 94 56 1.5230617970618714 29 1668 59 1498
6011 7.3067138292048455 -0.31491183875580081 17.19533487021657 90 65 38 0.21425953791587396 32 2206 35 2207 59 1516
6012 8.1228160399836256 -0.22040296056619055 16.882355250341323 98 74 43 0.15867808807430875 32 2200 33 2219 59 1517
6018 7.5731633610544025 -0.20771131291594577 16.939753702303708 132 98 58 0.48634242160972985 32 1408 33 1195 59 1536
6019 7.971098853953813 -0.15668968208768369 16.840553155383351 88 64 37 0.50290021834544696 32 1414 33 1201 59 1537
6020 4.353898280064521 -0.51498466736544679 17.773098768447671 137 100 59 0.42982279095222009 29 1109 59 1552 16 1021
6167 2.8545789053087405 -1.5742038329368688 22.098930731434614 53 39 24 0.4444705313894235 28 1100 59 2392
6022 1.9908782253049289 -0.74080093208131736 18.714613079391754 84 62 36 0.52649857875605199 33 1187 59 1566 28 964
6680 0.5019734652478558 0.9746685433967871 2.3938792555655688 58 31 23 1.5731014326633745 49 438 50 233 55 69
6027 10.60340481132144 0.38537926727519645 14.154098652475286 140 103 60 1.4605550414290078 35 1058 59 1606 16 970
6029 2.1785998511890332 -0.52822960193116275 18.115923283837063 124 94 56 1.2307575011153771 33 1229 59 1609 28 980
6030 7.2599437092270982 0.078875917287124925 15.563898107964134 132 99 59 0.34031433861652971 32 1450 33 1362 59 1616
6034 6.4501203811668448 0.67796420246119471 13.419650834554949 152 111 63 0.25811625635523955 32 1053 33 1420 59 1634
6035 7.3800164337962491 0.2141360861367709 15.213413940870272 89 64 37 0.23192729960355499 32 1463 33 1230 59 1642
6037 10.287887177350383 0.60840785485941873 14.037136417691263 105 74 43 0.54944819603345108 35 1412 59 1662 16 1842
6247 5.6809868662695582 2.5737260727857123 6.4143229247851794 123 92 54 0.29049961692850895 35 1806 59 2842
6038 2.0057232247149406 -0.30206192353631733 17.07532813293794 88 64 37 0.355469022707817 28 1011 32 1440 33 1720 59 1664
6760 0.79338119971036858 -0.80349543643151389 2.2874632695874335 138 28 27 1.3781437476096983 4 233 1 220 55 261 2 583 43 307
6043 4.1511042097942576 -0.57688383739178373 8.4668586125649892 90 69 41 1.7476832087134366 33 2142 59 1680
6046 3.0050335604267939 -0.09307541906765214 16.339866843289915 83 61 36 0.29906112628167247 9 1066 33 1055 59 1689 16 1154
6047 9.0804353069867858 0.6455479476743996 13.661722600593807 132 99 59 0.88537487518399283 35 2567 59 1699 16 1613
6875 0.74983166640791266 -0.72409193941473293 2.2123173551423156 43 32 21 0.37844155719732431 22 644 25 855 53 872
6056 9.5617156049524326 0.95261459597654385 12.508524433072431 155 113 64 0.36829857732010046 35 1464 59 1741 16 1727
6059 0.78412112304165626 -1.1316927385766007 2.3914584101270484 93 25 21 1.1834901205402395 32 825 59 1754
6067 0.28365650901929906 0.66418644693578921 13.150940790409376 117 89 53 0.6742312476849639 33 545 59 1801 32 652 54 1174
6070 1.5893207099946149 0.95047947060703342 12.406516558760524 106 75 43 0.24554933126212364 28 1130 33 1493 59 1815 47 877
6071 0.0037746855482863177 0.80536081715922614 12.905515031307194 83 61 36 0.50899925486581454 33 559 54 1192 32 664
6664 6.1689027697048191 -4.8449999141947844 30.259163458137419 109 79 46 0.50774337607829778 16 1651 54 1939
6075 5.2620952759959705 1.5719949107813282 10.269065996113797 241 219 130 0.091466615839124563 32 967 33 813 59 1828
6658 0.64935020347783112 -0.618740985088858 2.27397571221822 84 21 18 1.4902075216143085 22 62 25 52 21 58 53 106 19 57 23 73 45 119 54 187
6077 6.7399305861638741 1.9471025075009687 8.7580226624545343 138 102 60 0.51479897952522491 35 1199 59 1840 51 928
6078 6.5904111415833579 1.9757567537632059 8.6818671747853173 167 123 68 0.60993209098745549 35 622 59 1844 51 706 54 1936 16 460
6079 4.501852483954945 1.7694467510408249 9.2992592639191898 155 113 64 0.17148173831730468 32 746 33 597 59 1847 51 923
6085 0.64133112895385447 -0.2913657047331405 2.228277625599989 0 0 0 1.3644595218055431 16 819 47 763
7460 0.049208183020215172 0.7696927884194299 2.7689330542879929 36 24 32 1.78496409620301 25 981 24 1000
6231 0.59664289106307788 1.5555264939650302 10.093114347261444 89 65 37 0.076832599005382182 32 939 33 845 59 2752
6086 5.7671685422532448 2.1074878761481175 8.0758066380698086 170 126 69 0.20764476165121806 35 1226 59 1874 51 910
6089 6.4701198657936736 2.2696697986071861 7.7344594652714713 172 127 70 0.70662508593324036 35 1227 59 1885 44 864
6441 0.30575567513890373 -0.12849394759458108 2.3861216734732684 77 62 42 2.7687757511071318 29 1232 51 1482 33 1675
6091 -0.12800909021010143 1.5496329781515752 9.9616774839599351 122 93 55 0.47474800936253836 32 736 33 849 59 1894 54 1232 47 532
7459 0.15479070566478045 0.76956145834889267 2.6221838997262008 0 0 0 0.87744638022669563 16 1911 18 801
6738 0.55100562221510219 0.81174326744314207 2.4073224342097541 246 233 181 1.2237991485291844 4 795 15 1752 29 1914 55 746
6093 -0.9354482666322923 1.5401329055883848 10.002606177516174 132 99 59 0.088238422284675475 32 929 59 1901 47 641
6095 4.5048709586555917 2.210292171932184 7.6881852881180004 195 143 82 0.13000410400186505 33 629 59 1912 51 980
6099 3.4262420951034889 2.1649320606877787 7.8074543104518961 228 191 114 0.81578150674412975 32 704 33 481 59 1922 51 744
6100 4.0875371546450889 2.260776961340504 7.6535096484849072 122 89 52 0.1387318919523205 33 637 59 1923 32 703
6311 4.9478357391298342 -2.7179549518955985 22.878044836513329 0 0 0 1.6060012081017558 29 501 9 89
6102 0.36462043719031878 0.063838025938906154 2.1439756245784651 36 28 20 0.13114946667367933 32 933 59 1930
7480 0.39079324210686733 -0.92378708316030056 2.4702594459697633 141 28 27 1.3055876807123294 24 161 23 150 45 221
6106 0.6154017908475371 1.9411313826992889 8.5402535327087108 143 105 60 0.12429222851587944 33 638 59 1936 51 1158
6107 1.0223305825649933 2.0284378447648641 8.3318996462800428 90 66 38 0.51527695955902131 35 839 59 1938 51 684
7475 0.37133286159305229 -0.82887635959706241 2.4101701682795049 146 94 47 1.1991228305938981 21 168 24 121 23 91 20 104 25 158 45 239 56 797 52 226 36 147 39 118 57 238 34 94 38 166
6109 3.7830596749534204 2.3649836238686346 7.1488554691473807 159 116 65 0.42897987400498816 32 688 33 653 59 1944 51 754
6110 -0.72088205376037517 1.8889804251866555 8.7137873286249068 117 89 53 0.40168084796763787 32 707 59 1948 47 494
6117 3.2848210555838628 2.6397096874497841 6.0757318299186682 122 88 51 0.74719947122975183 33 917 59 1984 32 750 51 777
6263 6.9653520677966192 0.29486968007220749 14.909368665174089 152 111 63 0.29358376935341124 32 1474 33 1169 59 2918
6118 -1.1445276812731906 2.1557162897696571 7.6516658623824556 0 0 0 0.73309429066119947 29 1021 47 595 59 1988
6122 4.8689633535513375 1.9837075877592285 8.6187615542878149 132 99 59 0.15241622339573666 33 847 59 2115 51 913
6776 0.31146236918051184 -0.95188245591749787 2.191435345166548 236 56 57 0.49373036473369952 22 26 25 54 53 103
6123 0.69269281926667792 1.8900787714885328 8.8598852038663427 149 109 62 0.39036950373826729 33 864 59 2117 51 967
6125 1.2633992792600606 -0.89389418088914352 0.55674215591804055 217 166 98 2.1156452491102886 28 1452 59 2122
6128 13.215781678057374 -2.5794950515125628 27.482383970523227 115 88 52 2.2740696142045174 35 582 59 2145
6130 13.819055803787771 -0.41414810952894149 17.835918439870902 130 98 58 0.32211470697180056 35 1496 59 2159 16 1939
6215 6.0007672770059735 1.5610197513267716 10.392261090251111 76 54 31 0.45994590667045315 33 2181 59 2688
6134 9.4296824778020358 -0.61229553376326284 18.330845810808043 134 100 59 0.14822672097757761 32 1354 33 1325 59 2176
6728 -0.90729260851168625 -18.94627923226987 24.370853554546937 34 25 16 2.3912228006186909 2 651 43 605 55 607
6139 1.7854327115173714 0.15342220221850603 15.273370536117353 87 67 40 0.56258647155464059 28 1772 33 1408 59 2200
6722 0.3683643173971809 -0.82490661472832938 2.0992088843641401 230 47 43 0.71492291554668264 2 333 43 285 55 541
6141 3.0525353774799724 0.35987351350679991 14.361214034614852 91 69 41 0.31404567168554776 29 890 59 2215
6142 3.8415365419228773 0.49070641644483876 14.112151948833738 142 104 60 0.49568848558269241 29 1511 35 1338 59 2220 14 1573
6144 3.25077232781693 -0.39507774168558235 6.6586697933896026 95 68 39 0.30778934621926407 32 2172 59 2227
7088 -0.39569690186339079 0.76347409177835057 2.3935237598901438 80 38 144 0.076099769410677032 17 1249 21 1061
6145 0.27024883652236015 0.11993185449974314 15.08385714006528 117 89 53 0.31085205317521392 32 2120 59 2231
6147 9.0639801164235578 1.3432264690380407 11.054562118747377 153 112 63 0.91755505679356197 35 1472 59 2275 54 1753
7607 0.87797249851880765 -1.150123338651261 2.6200202237368253 171 35 33 2.1636693210592637 5 1213 48 725 8 1257 27 1206 12 1255 30 994
6148 0.43768205025868945 -1.1200745599413093 2.1878482442084382 162 34 30 0.62823790319149475 35 984 59 2286 51 761
7601 -16.610613198930778 -0.3761583494067276 16.67225394607599 162 117 73 2.3350655102427837 31 934 48 1110
6150 8.9544562947716351 0.050893326701953491 12.516605810810193 142 104 60 1.0237841407623032 35 2192 59 2302
6154 4.1442320064311939 -4.9638007587325266 30.309104530288739 77 56 33 1.326567248522833 33 1923 59 2332
8122 0.30503518992984147 -0.0019629699278641533 2.2444389722361957 67 42 26 1.6103058826798484 39 73 36 45 57 76 34 69
6155 3.4009295328921971 -5.0994119826527582 31.063973314824281 74 55 33 0.78920210997962992 33 1924 59 2334 54 1655
7615 0.1559856077565524 0.69201378013683723 2.8744584040508574 244 188 146 1.5650085562192739 23 21 20 21 36 104 52 274 57 351
6156 3.6701350073629437 -5.110734110194783 31.32187219122239 78 58 34 0.47689328756987237 32 1714 33 1703 59 2336
7609 -0.19523295220959999 2.4932478104569622 3.6234192917531329 77 30 20 3.5767478552934699 49 350 48 234
6158 5.70480495922342 1.2304923100857665 11.230970485402956 196 143 83 0.094072825187416623 32 1560 33 788 59 2342
6160 4.586337895810658 -2.3329636417049615 25.956568542304289 52 39 24 2.5052435226622132 29 1135 59 2354
6163 7.4341166951038637 -1.4808572946477527 21.325149751875095 132 99 59 0.80057006501057471 32 2366 35 2076 59 2378
7559 -29.821735955579193 -6.6241289294729757 23.726922943537591 43 33 20 0.36966466783517993 5 95 48 74 27 54 49 76
6164 0.15265433545951285 -2.2873353149469402 3.5702516987838067 132 99 59 0.1723211173999683 16 1494 59 2380
7044 0.22315075644646551 0.53150047698717251 3.1567194458171781 254 252 254 0.3217254449624164 22 1039 21 800
6165 0.84106484414557103 -2.06048110743387 7.1096962581229768 106 79 46 1.1979435429917478 33 188 59 2388
7553 0.27662254028752514 0.060054829673755111 2.8454737225999964 69 34 83 0.4829566497589225 25 1055 23 807
6166 7.5099956652892326 -1.0486092183198377 20.190375157831927 87 67 40 0.68657239152568816 32 1324 59 2390 35 2112
6168 8.713432009923725 -0.87905044780031061 19.596814640146242 123 91 53 1.3739561229061863 32 2325 33 2048 59 2399
6169 0.54385842670628637 1.3493399138209043 10.685687783762663 127 96 57 0.11481846420166289 33 825 59 2402 32 957 47 652
8074 0.3137084701157683 -0.090924952015890625 2.5189938126708804 83 70 63 0.17535226360990566 35 1205 42 1240
6171 6.2690574884870207 2.1300124185416123 8.1572552499222226 141 104 60 0.26629473634151174 35 1622 59 2424 51 918
7052 0.47102363433763961 -0.70970973548491256 2.1173998945548917 92 26 23 1.5133913361325977 25 445 21 882 19 433
6173 4.0767652338003169 -1.2935550587399323 20.590139073342478 122 91 54 0.079828142607658248 29 1705 59 2436
6174 8.0813732812670285 -0.81107506328629819 19.092724900170204 86 63 37 0.55627348278936728 32 2300 33 2068 35 1276 59 2444
6176 2.2037773539662395 -1.418580304403789 20.836130222706217 110 85 50 0.7814801237855159 28 907 33 2050 59 2456
8018 1.5872216350670523 0.40420962955947054 1.739294005468619 95 73 44 1.2667967193163305 39 212 42 285
6179 7.2633934622034566 -0.77727675093138338 18.934666550977859 76 54 31 0.29196416237651568 32 2288 35 2145 59 2471
6181 8.6999986791222774 -0.59348795336890425 18.197037711067171 90 65 38 0.8713497409058798 32 2432 33 2095 59 2480
7872 0.24814474326556532 -0.12166941936508607 2.7612115780017459 52 42 31 0.58337891031325428 56 988 52 688 39 386
7505 0.44885440539102034 -0.070690270826904489 2.1179155850829243 28 20 22 0.78885588861974631 24 501 23 392
6182 5.4032338572328484 -0.96349640384704238 19.551326834941669 138 102 59 0.53368269581124306 14 965 29 1042 35 1313 59 2481 16 947
6186 4.3415861841384258 -1.0033103666542988 19.711795919953705 84 61 36 0.09846327213294577 29 1039 59 2503 16 1408
7887 67.93984075072261 -22.379781638441255 6.4778250172604634 9 6 4 0.47883712702359305 24 1129 52 1030
7004 0.60131646854423015 -0.45824659957008518 2.2412226396351325 27 18 21 1.207319633662153 25 494 21 521 53 887 19 1068
6189 8.0047561065310564 -0.49452141574804048 17.835095775434993 150 109 62 0.36132134389119203 32 1372 33 1852 59 2525
6193 0.37630010353796411 0.73681265500779525 13.085914269117964 122 89 52 0.12095295495661347 33 1993 59 2564 32 2007
7076 0.34236922611155646 0.14851718052689106 2.3262362641399013 103 56 42 1.5520285465066013 16 17 18 15 22 3 59 103 21 16 17 19 54 41 25 14 53 22 19 7 24 22 23 12 52 83 33 36
6197 1.8269769841036405 -0.88204380455704368 19.023948762297362 124 94 56 0.10320919758892967 33 1164 59 2596 28 946
7585 -51.447029017713923 5.8810637086048576 46.624082240814978 90 68 41 0.67643119765296422 31 956 48 820
6198 2.3758940224581946 -0.67341651973490491 18.594736955249953 84 64 38 1.150056561726952 33 1194 59 2616 9 936
8106 0.39617377876881976 -1.0897527717397237 2.3212816005690571 146 30 28 0.7016092747607906 39 1439 42 1928 36 936 34 890 37 877
6203 6.7093300863424847 -0.074896872280253685 16.168331788303842 116 88 52 0.049679619331047781 32 2177 59 2643 33 1263
6204 3.7089048820988002 -0.39403096893393119 17.33465827196261 141 104 60 0.21748935675796485 29 1999 33 2506 59 2646
7903 0.34807940682711236 0.026939363566001937 2.2054971976048665 27 18 13 2.0420879901077336 19 207 56 1565 52 937 17 1113 21 355 39 393 36 375 57 934 34 368 24 223
7084 0.35779922073144549 0.0055388110153790299 2.1773543225842515 82 61 74 2.7395184420764265 17 1124 21 841
6205 4.8364790264763933 -0.2343145142222284 17.48206554369844 130 93 54 1.172659902210857 35 2505 59 2648
7896 0.55081540772417381 1.1592296218718661 2.3803026156080107 243 189 147 1.2321606550809077 45 255 57 1005
7593 -52.878695799453958 -28.160822166804682 38.752241592808325 92 62 31 1.5000197285733909 8 1112 13 1193 48 911
6206 5.2244237692038524 -0.20782882914636672 16.951427655525581 117 88 52 0.80668430455599216 35 1419 59 2651 14 1510
6208 6.739965916221907 0.048130521525162881 15.81534517558649 132 98 58 0.096070494226375383 32 2166 33 2531 35 2395 59 2666
7152 0.61812446105052177 -0.61768244031794328 2.3128276089427207 206 129 95 1.5082766442833975 17 340 22 354 25 657 53 550 19 297 21 323 24 480 23 187
6209 4.4729494732840136 -0.17407573619355246 16.91152007229983 124 94 56 0.49174086933701178 14 1517 35 1443 59 2671
7671 0.14354242767904329 0.56386297426586074 2.7738385671801273 50 40 34 1.0842401060405056 19 1025 24 760 20 532 45 697 39 1208
6212 4.7458005790265521 -0.13760816340756901 16.378886850850947 88 66 39 0.77816873953752752 14 1520 35 1442 59 2677
7156 0.4802227500910094 0.3758909280167973 2.1627129852319174 43 27 18 1.9391387347584355 21 346 22 245 23 831
6213 8.5930676307602614 0.60243332950020978 19.062681685335875 155 113 64 2.343099226996241 33 1737 59 2681
6217 0.42388756947790812 -0.79804562836612691 2.1482062660838661 238 51 47 1.3605618829569557 14 447 59 2691
8186 -0.61374056126639009 0.04149430551764275 1.9429116778174145 78 58 34 2.247954303862131 39 168 36 585
6219 0.38384396088105521 -0.74110368131129645 2.2387346285547585 218 167 99 0.47131187410202235 29 783 59 2699 15 632
7679 17.00610518518301 -14.216431341137872 4.3362145511643861 11 8 6 0.22904265719147454 19 803 20 636
6220 0.065175739154332266 0.90581180694891927 11.499163154780401 112 85 49 1.1770017314616843 32 1921 59 2700 33 1860
7164 0.31144581005360816 1.4269796867253026 2.5956525296721891 33 21 13 2.6371864155012648 54 1139 53 682 56 1713
6221 2.6395588844204894 1.3200788420973237 11.197884272399845 84 63 37 0.33369847217627818 35 1209 59 2703 51 1083
7673 0.23868555981783041 0.61583812264736959 2.8539932228401645 244 188 146 0.32518985764832187 23 893 20 575
6222 2.4050827494581299 1.3071079220568862 11.232290234446259 239 214 125 0.35376284833705518 35 1603 59 2707 51 1337 16 698 29 1606 47 1162
7104 15.199342731105517 -17.706223988104568 33.285194474007326 78 57 34 0.61676205696014119 54 417 53 238 16 311
6225 6.6031061528379542 1.9671944000330444 8.7593710769001234 112 82 47 0.14128771895606801 35 2256 51 1008
8130 0.41331880985948227 -0.1392883475444345 2.1360347078738293 49 40 35 0.6779814043408452 39 49 57 323
6227 1.0511048131253755 1.4003101728681799 10.518854600898127 116 87 51 0.19783524423429433 33 1522 59 2722 47 648
7623 0.2130359710339578 0.027692111273447451 2.9356064573189227 64 51 67 1.2659186743046318 23 64 20 86 45 111 56 409
6949 0.30484703782660344 1.6510496720803984 2.762200158690209 113 30 27 2.3024333555162477 47 1437 58 1852 54 375
6228 0.35110503767089646 -0.37095417593301405 2.4903438103076305 240 190 132 1.104139150704091 16 568 29 568 32 632 59 2724 28 825 47 1491
7108 0.82994038310822948 -1.0993978549284542 2.1680005668834119 236 52 49 0.39219561396297686 22 188 53 253
6229 0.30065254890167747 -0.25658130672860013 2.7208944713886658 41 30 19 1.2484971686475201 35 502 59 2742 51 1221 21 204 25 300 19 111 24 134 23 120 20 140 45 236 56 459 52 512 39 171 42 277 36 249 44 455 57 870 34 371
7470 0.35184601414909294 0.20915082179584463 2.6935014143480029 16 11 11 1.904796441109341 19 52 23 58 20 37 45 81 56 272
7112 0.84510742069487943 -0.19764350217826612 2.2339813725566997 245 192 153 0.53082233671698176 22 223 53 305
6233 4.8858469780578977 2.1370588356899867 8.1223326729287262 122 89 52 0.31704083476570211 33 622 59 2771 51 887
7625 0.71496680940317725 -1.3907828566829228 2.4511780564081667 101 21 23 0.33128222224233472 20 96 45 192
6238 0.18473009483506425 0.17188489397259227 2.9687172889533451 68 59 64 1.1824281729879811 33 1545 59 2800 14 1506
6239 0.15164257624508051 1.8006625463419415 9.0003510452726818 123 91 54 0.23071921321912633 32 911 33 756 59 2805
6240 0.1797990685491371 1.8313401651998791 8.9573543546508567 125 94 56 0.15653245639111138 32 909 33 863 59 2811
7575 0.52114337072171679 -0.92375710781257825 2.0118201614105664 84 31 21 1.032390433919846 12 782 48 470 31 546
6244 3.0029787330980531 -0.20243708342639971 16.680528859140068 89 68 41 0.3594172180342759 33 1326 59 2818 16 1564
7569 0.59958507263199856 -0.20081972475535576 2.12239484369085 85 84 92 0.41192985603068322 11 88 48 224
6246 -0.6531947128695611 1.7703518280284449 9.0824277019834216 169 125 69 0.26901344482908046 29 986 32 908 59 2830
6250 0.4040961991678107 2.0659596815299808 8.1083364895203971 76 58 35 0.018873165639015282 33 883 59 2854
7583 1.1875961894887943 1.11051658301569 2.3206547039199172 44 31 20 1.9432195795781326 49 1296 48 789
6252 0.52678194836249692 0.33845025652883631 2.1816024919426771 236 51 47 1.9158006179248892 47 1715 59 2857 15 1634
6253 0.44598006649338356 2.0765406841603991 8.0748162728973725 131 97 58 0.034676702276613902 33 1609 59 2858
6254 -0.064611469729689286 2.0264635757384588 8.2531018100984834 120 88 51 0.21996771806741469 32 1663 33 1608 59 2861
6255 -0.58144044574301235 1.9712888321377084 8.4177213406746407 124 94 56 0.040165334158863711 32 889 59 2863
6256 3.509287408734969 2.4405897662672689 6.8938419777899487 136 100 59 0.21526144166764671 32 859 33 897 59 2864
8162 0.54594086281033483 -0.7378786135550528 3.26231511118828 103 78 45 0.013116291458133957 39 220 36 316
6259 0.504683514032219 0.60888512288798358 2.2827206980197619 238 51 47 1.4907773230165582 28 462 59 2888 54 1046
7655 0.61085963925484343 -1.4166091659938529 2.583440738673922 215 42 42 1.7126763358122827 23 296 20 421 45 591
6260 3.3473341467842466 2.6573837435217205 6.141496778009115 98 70 40 0.88711939708513932 33 1642 59 2896 51 776
7140 0.8531489429599135 0.045251092532805862 2.303425460586269 253 253 254 0.46567977621751 22 327 53 489 3 341
6261 -0.052401561496902414 -0.39107663314272995 4.5807335039833248 107 80 47 2.3335286847917702 14 1135 59 2898
6262 4.6192482334653029 0.034921695362481436 15.805333317206093 141 104 60 0.45549629674988079 14 1534 29 2033 59 2912
6265 6.433745747466908 0.24089379132125432 15.026399111755794 169 125 69 0.2474745438639766 32 2148 33 1733 35 1446 59 2924
6266 3.5721273775732438 2.851341806459049 5.2425329984805424 99 70 40 0.53043553597258597 35 1775 59 2927 51 1210
7148 0.49639030125059369 0.46223856403815444 2.1241601085199955 34 17 52 0.1338735790882549 18 640 53 525
6269 7.1153469796137552 0.35936462111998285 14.305539509697375 166 122 68 1.8163978303953501 32 1481 33 1389 59 3025 33 1383
6270 7.2088054629013314 0.39300189916412454 14.317664652454162 172 127 70 0.75843927287685708 32 1485 59 3026 33 1067
6271 4.851226379860476 0.14911902295903923 15.397971982703872 123 92 54 0.73292303160606931 14 1543 35 1528 59 3054
6929 0.5107216438943819 0.37452891775484193 2.1546544270477801 236 56 57 0.54387853376606543 16 1749 25 1174
6272 10.426852235153717 -3.1258301462244815 26.716398757672824 57 42 25 1.1800555246617781 32 823 35 2026 59 3056 35 988
6273 5.592340830056342 -3.4587871906141063 28.632875052882799 89 64 37 0.78656401299913081 29 740 33 714 59 3058 16 827
6274 6.1913295833872466 0.29492677453409144 14.807019642846008 132 99 59 0.53931339228206798 33 1386 35 2607 59 3060
6275 1.5267282186762032 0.74769336499456152 12.951448220167471 123 93 55 0.20571111395223185 28 1809 33 1821 59 3062
6277 4.2830561369741558 0.086414844767426571 15.517525933801505 150 110 63 0.63305025100951251 35 1315 59 3067 14 478
7444 0.27036776485691705 -0.036514341029658212 2.8378122079231076 52 19 85 0.44146621295507588 35 2270 24 1057
6279 4.6858664697952506 0.20503873470503703 15.249480376744465 96 68 39 0.46130295245048847 14 1037 35 1397 59 3073 29 1489
6937 -0.10008986151637304 -0.0062231751808070161 0.87893828178278899 41 31 20 0.73503269248282921 25 606 29 1310
6280 6.4681287999298673 3.4206983347868052 50.210718495830825 129 97 58 0.56782609640051607 33 931 59 3074
7454 0.23553359923418771 -0.094529858666538236 2.7813004932459724 92 78 77 0.955970398651108 25 947 19 591 24 692 35 2254 22 1056 20 738
6281 1.0980248055450885 -0.18526245255708532 16.430203744559009 130 98 58 0.37351077048997122 32 1462 33 1380 59 3076
7963 17.892368924738843 3.6075713841930614 2.7109753118772297 82 61 36 0.38887504811239698 56 1030 39 990 57 875
6282 7.2717269012207932 0.54386575236409629 14.115462026331532 152 111 63 0.28233208473734567 32 1837 33 1752 59 3079
6941 -0.14165027767058685 -0.013535612401278194 0.89799697135083201 253 254 254 0.36651230082941144 25 779 29 1375
6284 0.59644282159016881 -0.19870149114722183 16.450096666967141 97 70 40 1.3673512588839443 32 1464 33 1388 59 3082 15 1764
6286 9.0789313962048475 0.7948716839539548 13.086988163435304 154 113 64 0.41936014009958789 35 1106 59 3089 16 1165
7452 0.78765849939670973 -0.61963979319566276 3.4317010750670183 106 82 56 1.2710757257408383 19 989 24 1172
6287 6.3928304160024183 0.4942420332865714 13.936721885514906 155 113 64 0.44836834470204323 32 2124 59 3093
7009 0.55006867568400419 -0.14909988594339565 2.1561238488115468 63 26 23 1.599267120516441 22 913 21 541
6288 8.7519850457227708 -0.63718772677447733 18.386879436268341 140 102 59 0.037452293753719564 32 1358 33 2086 59 3103
7526 0.47065906198853269 0.1193339594861297 2.7967872311023902 29 21 21 1.9241583946501666 24 304 23 608 20 507 36 1117
6289 3.8781388614529129 0.31096163482880906 14.721728446203297 172 127 70 0.51651189451984925 35 1129 59 3105 29 1200
8035 0.28174058399630791 -0.2829621602309822 2.8631083005970557 92 82 83 2.1461146570757839 39 337 42 528
6290 7.9371606691336245 -0.20673642614780294 16.658503649823391 142 104 60 0.65918838805942959 33 2283 59 3107 32 1215
6291 5.4596111550489335 -0.54492140454826465 18.403275414013642 125 91 53 0.82103602434355683 14 1668 35 2223 59 3110
7013 0.5053056899027254 -0.60575924873883402 2.2870125343697465 244 191 151 1.7022697152578588 17 688 25 636 21 552 24 850 20 342
6292 0.21555608662246145 -0.047122740142047571 2.3661638486484233 95 82 72 0.10427866929970393 32 959 59 3111
6295 4.0094787579537012 -1.5576506910089598 19.552067163671008 108 81 47 1.1768955952882887 9 1127 59 3135
7017 0.47906459268499818 -0.34195846247132161 2.3190557842919159 31 22 23 0.27729858828264625 25 663 21 593 19 547
6296 4.6165346739476583 -1.8166985516183602 7.7453628781183461 140 103 60 1.4025792101780499 35 1825 59 3138
7534 0.37033047796419638 -0.84646975502645405 2.4156135857773919 201 130 94 1.6612300694427546 24 814 23 750 39 1056 34 608
6297 3.6810390112139024 0.42028171963045174 14.39596163788703 140 102 59 0.30662216037789874 35 1382 59 3145 29 1214
8043 0.44028026636986095 -1.1131851255932557 2.1917450955785132 157 31 28 1.0295628389165887 39 455 42 617 36 360 44 566 57 941 34 384 41 278 38 466 37 234
6298 4.1581786273014494 0.026889181360159921 15.800321013654987 140 102 59 0.68740526025999371 14 1533 35 2592 59 3154 29 1172
7021 0.1767810381846969 0.0062773816717655957 2.3237928394290885 49 37 43 2.6962371489500687 18 600 21 610 19 579
6300 5.5949351191872703 0.98355362340056063 12.22312236844062 132 97 58 0.25631004173814703 32 1751 33 1807 59 3160
6302 -0.32677322560608174 1.0294835577045325 3.8828479540006802 100 76 45 2.7590359751523161 47 1045 59 3174
7532 0.53961242841962631 -0.96883515359779948 1.9974484177230634 236 48 45 1.1471151180786707 24 1019 23 728
6303 0.16607070273397143 0.87541594918602728 2.5691519944512766 134 106 60 1.3627801431653908 28 477 58 1599 26 988 59 1991 29 340 47 1662 33 498 54 794 53 227 25 92 56 706
6961 0.62208157245959184 -0.39240464692682675 2.2458105737563248 28 21 14 0.37078093265074885 22 59 21 77 3 57 17 92 53 131
6304 0.43644041923983662 -0.19581144088342728 2.2276145522164854 42 23 29 1.7268970658707499 29 934 28 1131 32 1007 33 805 14 686 59 1893 33 331 35 380 42 471 39 201 57 639 41 298
7478 0.2452087924811765 0.14102433802275827 2.4709854492541643 52 42 37 1.1307024250740108 24 155 23 128 20 131 45 285 56 742 52 527 39 354 42 361 36 267 57 660
6305 0.46916111762758073 -0.20427376962850502 2.1862203667160016 43 21 26 1.7595887162828359 35 611 16 350 59 2765 29 467 32 981 9 605 14 391 15 507 28 859 26 710 7 953 27 979 50 1415 33 803 51 1289 54 1558
7639 0.011813685915357183 -0.012440300847780856 2.4183815881773496 28 19 21 1.1361981998859225 23 194 20 262 45 493
6965 0.28700544148556828 -0.22829085058596446 2.7539904882945359 242 204 152 1.4754475671295364 22 164 25 193 21 110 53 208 19 114 24 137 20 139 45 400 52 514 42 105 39 102 36 87 44 230 57 308 34 128 41 113 38 223 37 164 40 565
6308 0.66614939586584632 -1.1835579786264041 2.2960010630247263 66 15 16 1.4572419514829522 29 344 28 325 5 596 13 730 49 829 58 549 9 477 59 1479
7124 0.58204571409998374 0.72955783275789143 2.4404878325546919 0 0 0 0.42857802093428871 33 735 54 1778 32 511
6309 1.7443492892871482 0.40985190484039941 13.83693508793775 36 27 16 1.7899016892868196 33 1117 59 1281 28 358 58 546
6969 0.29860193124937667 -0.30110422920442659 2.7121474650984645 34 23 36 0.80397427872867189 25 221 21 147 19 149 24 160 20 114 39 196 42 468 36 176 57 491 34 154 38 261
6312 -0.50989589541690039 1.2985873311977612 10.93445718633984 69 52 31 0.30925739918538114 32 366 59 534 47 345
7486 0.43163059280906213 0.1397268515036463 2.8151802125234955 72 61 61 1.4483640583395623 24 202 23 207 45 372
7128 0.11218452697701241 1.1247805447764891 2.6809324579401852 117 107 102 0.59596531004365927 54 1430 53 390 45 648
6313 5.9293994394666543 2.2343437017530503 7.7716136029619918 88 64 37 0.10907156528173115 35 646 54 1231
7647 0.14568779060357373 -0.036538210867230227 2.5081099779392559 59 49 39 1.6657104423784201 20 358 36 553
6973 0.57943383362924772 -0.76230301271290712 2.0611174615087431 112 24 27 0.6097861711899748 22 185 25 162 21 169 19 257
6316 6.4509340431185311 0.47607128687755568 13.730557720763079 110 81 47 1.9369142598827933 32 1067 33 1083 59 1241
7484 0.44150022671001876 0.10220235678254326 2.8107690597890955 40 31 37 1.8962577047992495 24 200 23 169 45 375 56 997
6319 4.4166676292249454 -0.47690281946899798 17.828667038093041 87 64 37 0.41998368205401881 29 1119 59 1561 16 1439
6320 6.0398767951062036 -0.51214450431285075 11.96192631191831 101 74 43 2.5317214597840563 32 2236 59 1576
7430 0.87491414328924788 -1.0217778402698969 3.3785956395785033 68 50 31 1.6804048866417804 19 504 24 893
6321 2.2900200705109146 0.021782116600655529 15.597869322545513 122 92 55 1.2902208478440944 28 805 59 1588 33 1394 9 976 16 1179
7939 0.3495515470467162 -0.86516670030218001 2.1852667071953333 242 53 49 2.4863656829540615 52 490 39 437 36 680
6322 0.3573300615978181 0.8690038299341889 12.626804113570868 81 59 35 0.48335281876980274 32 1904 33 798 59 1821 47 666
6323 1.3607806174811694 1.2144369134914954 11.565726854357809 188 138 78 1.1890810105682617 28 548 59 1832 16 1299
6917 0.28730441952286728 -0.057911981907310506 2.2438817167479943 152 152 152 2.2585768265728401 22 342 25 675 29 1247 17 550 18 590 21 596 53 913
6324 4.0377135110926963 -1.4525259519037976 21.97718872872321 65 39 22 1.3996113744408385 59 2163 54 247 16 1968
6325 3.8602505301310592 -0.12041532261858509 16.351620516273208 140 102 59 0.56379913510486201 29 1156 59 2306 16 1468
7428 0.23619741201545932 -0.24565331272724028 1.6667256268619526 15 9 7 2.1943212358112376 19 164 24 835
6327 4.1629696255746271 -0.41286382250872689 17.54008924173387 123 92 54 0.55407505854515315 29 1996 59 2628 16 1450
6921 0.46006258562648156 -1.1705690360875427 2.2187985315475163 61 24 14 1.6618602273857699 35 1311 19 801 19 1051 21 839
6328 3.9022993674759046 -0.23080375263217065 16.763847980814418 140 103 60 0.58576485890223584 29 1143 59 2676 16 1807
7438 0.12779349923830896 0.45690558984026058 3.1525061950323749 34 23 38 1.1330418539076093 21 784 24 959 23 575
6329 2.2810966350761261 1.3105565694917141 11.477843399881925 218 167 99 1.4948575287872088 29 669 59 2708 51 1727 14 588 35 2619
7947 16.722958465227777 3.7106002096812243 2.3420244310935296 88 67 40 0.6171889095333315 56 1432 39 582 57 554
6330 4.0970920498101169 -0.14381601355578796 16.532844839717523 141 104 60 0.36125095805203955 29 2022 59 2712 16 1943
6925 0.88747432343368482 0.023395414411101968 2.0473672604187287 51 41 34 3.0665717422746335 18 495 25 1057
6332 0.52460855044708821 2.2248127377831146 8.8534301390230841 99 75 43 1.6337610506073506 33 1603 59 2848
6334 0.96833495568260597 2.1554843207662451 7.973502113531004 136 101 59 0.73956149647751646 35 923 59 2855 51 819
7436 0.27360458710696439 -0.23680493111495973 2.7891989280646552 158 49 57 0.47263640093897002 19 582 24 944 23 511
6335 -0.88822929419696439 1.9658594536798553 8.3801915578631476 136 101 59 1.1376084021654578 29 530 59 2870 47 1276
7718 0.013795029939697941 1.405701244338893 2.8873294506491018 64 33 21 2.0298830567920016 54 837 45 333 56 1155
6993 0.28713117216035344 0.8736044865257131 2.4594975305298981 59 45 52 1.2289697327783224 18 704 21 401 24 440
6336 6.1879165854934337 0.34919894477666447 14.579822305719889 105 73 42 0.29690882820099557 32 2136 59 3071
6997 0.36557482108148881 -0.71806327642372003 2.2712695246267804 243 185 145 1.1744273087423651 25 834 21 438 19 542 53 517 18 459 24 627
6340 0.36794262785650245 1.1647241027281177 2.5167619663051646 53 25 24 1.5733054483680509 59 89 54 52 53 38 56 108 57 363
6341 6.583642199366869 1.9562844889220901 9.0114130178053458 133 97 57 0.72868203167119228 59 126 51 81 54 258 16 94
7717 0.16636915606571526 1.4327460973315262 2.7075964404868134 58 36 21 1.134291810018629 53 409 45 307 56 1299
7508 0.2739552526215332 0.13930265470198369 3.0155690734310259 70 61 78 1.23911295473799 23 416 42 1722
6343 4.3899720644804319 2.6481368615655567 6.2527651363106873 124 93 58 0.43034009498356124 59 93 51 95 54 168
7726 0.3427760403492327 -0.48803011571144 2.7061862747218366 203 100 79 1.7978837986303902 20 447 45 489 52 421
7001 0.16300576581074616 0.003030555381566098 2.4417851871683141 52 40 44 2.1575562038542473 22 703 25 516 24 357
6344 4.7663679473204255 2.5433830724687265 6.5488251399408819 120 88 52 0.9971435887609198 59 291 51 108 54 399
7518 0.42879508582671488 -0.72373259402730095 2.141338676014322 94 19 21 1.614100031631039 24 623 23 542 20 471
6345 4.0788823746273843 2.5407692923662069 6.5966416055025912 91 67 40 1.9097030192949809 59 281 51 113 54 443
7725 53.595146093657803 -35.158772284254866 10.225446528629133 16 11 7 0.34861721330926693 19 852 45 475
7516 0.42538545013024714 -0.75153685284657423 2.1473237193095325 96 19 21 1.2054538394858745 24 621 23 538 20 665 45 842 42 1159
6351 4.6626844621696346 2.3405273125617816 7.3216389852234167 104 75 43 0.094760182186696837 59 578 51 209 54 642
7734 41.695842552609967 -10.383618874509811 11.078723526423339 87 40 20 0.98066964576563298 19 396 45 568
7073 0.12841325551514121 0.50930964548834046 2.7304757979513559 28 16 44 0.14166216725333503 35 2447 21 1066
6352 4.0935531145625381 2.3309106853053287 7.3841592484920335 166 122 69 0.97265248231794388 33 261 51 215 54 649
6355 3.6643786559353142 2.6675864230826543 6.029176187216482 79 56 34 0.18596791707213178 59 410 51 236 54 275
7077 0.51457322719954124 -0.72193551189644756 2.1183135873972412 215 161 120 2.1282606163684035 25 484 32 113 33 355 9 81 14 115 35 235 16 157 4 74 2 104 1 83 3 74 18 161 58 314 59 1829 54 437 21 432
6356 3.3403763521057357 2.7602551388139456 5.6321182506320113 77 57 34 1.566372677946821 59 162 51 243 54 229
7733 0.22414075351720272 1.43206359287504 2.6890388594713763 63 24 22 0.81533950213689743 54 1748 45 560
6359 1.8910167727667222 0.60277355423285428 2.8749438333978943 120 88 52 0.25848139234309431 35 354 51 253
7598 -30.748784336064698 -3.7017539477556562 22.052112543558984 52 39 25 1.44107763931215 8 572 48 1039
6361 0.096564584204843068 0.66767167164832675 2.5771664345326823 57 36 36 2.6763480554641146 47 132 51 274
7741 0.68339817702216066 -1.3423258517533092 2.4177485229231102 216 190 117 0.32816958605508917 20 326 45 656 56 943
7596 0.47424239367581955 0.19293834821670525 2.1457005827276436 72 49 24 1.9792908758521783 49 1184 48 1019
6367 1.8888487143581985 1.8631890406129092 9.1882887135101168 143 104 60 0.53990068167792071 35 342 51 326 47 324
7025 0.30559144680983524 0.06854206760067745 2.3434502443412835 101 68 61 2.1178051484165636 35 1639 21 626 24 1035
6368 1.0526593792990904 1.7671431158860855 9.2747660499178224 84 60 36 0.48805180971873563 59 561 51 334 54 913
7542 0.24137745547764319 0.24480649585967221 2.9510251879809002 69 34 83 1.375209443802017 24 1123 23 841 21 663
6369 2.0938865233214901 2.0076074538950066 8.4632440626455558 85 59 36 0.13171249226101361 35 270 51 340
8051 0.68501492048671508 -1.3454530943333387 2.3962569988029263 240 239 237 1.8756718198834716 39 1394 42 843 44 1200
6370 1.1138249380387606 1.9200174695701029 8.6990611612293165 88 65 38 0.89960315344235697 59 576 51 345 54 640
6371 4.1979801097648517 2.4878137470936386 6.8066891955045179 137 100 58 0.88714955750350433 59 592 51 358 54 619
7029 0.32489569245901806 0.036319642935343857 2.9135316232936104 253 252 253 0.0030838986920755634 17 959 21 646
6372 0.62578699388216008 1.9816107238424634 8.4683342690052168 85 64 38 0.15596901668625637 59 693 51 360 54 652
6373 0.12216701970665875 1.0862915422136177 2.6666266546833572 177 169 163 1.1864748136829286 59 387 54 148 45 74 56 159 52 150 57 146
7540 2.511173572373572 -0.49030018580006646 2.0930270671801563 65 20 25 0.73553398497440847 53 967 23 814
6375 -0.61955390283513301 2.8399788817993805 5.1991277907482338 64 49 30 0.19682724679153707 59 499 51 392
7033 0.12668116551803882 0.45327976675971049 3.1202500993007201 240 235 197 2.0329098809800561 22 1019 25 425 21 693 19 386 24 343
6376 0.94132279223172632 0.087605730760209818 2.2680656748796153 68 39 68 1.2273022463166035 47 174 51 410 44 365
8059 0.38806821157618254 -0.14786452041040513 2.2515791009463655 103 86 81 0.76180194375271115 35 2233 42 947 44 1046
6378 0.29743643082309562 -0.31011436268181197 2.6924716157843047 75 44 32 0.80514787959873413 33 345 51 427 32 286
